3.604472e-002 -3.670332e-001 -2.978828e+000 21 21 19
3.455691e-002 -3.671099e-001 -2.979550e+000 21 21 19
3.218523e-002 -4.226660e-001 -3.000219e+000 216 216 214
7.721379e-002 -4.244939e-001 -3.003013e+000 214 213 211
1.765489e-001 -4.014242e-001 -3.019206e+000 211 215 208
2.732248e-001 -3.393167e-001 -3.023576e+000 97 19 20
2.778818e-001 -3.639455e-001 -3.028623e+000 91 5 2
2.486979e-001 -3.864713e-001 -3.027091e+000 224 224 219
-7.721637e-001 -4.738746e-001 -3.053195e+000 151 169 182
-6.505233e-001 -5.529838e-001 -3.107393e+000 67 154 179
-1.210972e-003 -5.903930e-001 -3.036677e+000 42 27 13
-1.221628e-003 -5.910825e-001 -3.039077e+000 42 27 13
3.102216e-001 -5.220947e-001 -3.085372e+000 111 1 0
3.115397e-001 -5.187668e-001 -3.083063e+000 111 1 0
-6.345261e-001 -6.160586e-001 -3.138015e+000 64 153 179
-4.623640e-001 -6.047065e-001 -3.091395e+000 110 158 116
-4.361007e-001 -6.486571e-001 -3.119621e+000 48 89 57
-6.931616e-001 -7.918232e-001 -3.168460e+000 189 84 107
-6.082206e-001 -8.267702e-001 -3.193496e+000 126 170 180
1.383640e+000 -7.907757e-001 -3.019470e+000 161 162 149
-1.230061e-002 -9.402317e-001 -2.991561e+000 90 107 96
1.645355e-001 -9.532980e-001 -2.941591e+000 47 52 47
-1.886220e-001 -9.688867e-001 -2.928951e+000 12 17 10
-3.824104e-002 -9.879496e-001 -2.920909e+000 56 63 62
3.809429e-001 -9.731511e-001 -2.871378e+000 24 31 17
-3.353534e-001 -1.046831e+000 -2.901611e+000 32 44 42
-1.104556e-001 -1.076107e+000 -2.849774e+000 26 62 52
4.414282e-001 -1.044129e+000 -2.750810e+000 91 113 127
-2.942334e-001 -1.128776e+000 -2.799388e+000 25 30 13
-2.942334e-001 -1.128776e+000 -2.799388e+000 25 30 13
-5.624907e-003 1.165354e+000 -3.026582e+000 162 163 158
1.095743e-001 1.196700e+000 -3.079504e+000 115 117 114
-2.326168e-001 1.038452e+000 -3.018042e+000 188 187 181
2.427577e-001 1.046636e+000 -2.943222e+000 158 165 158
-2.063685e-001 9.224973e-001 -3.101907e+000 192 194 185
-7.336875e-002 8.086213e-001 -3.043271e+000 105 88 78
-9.960524e-001 4.101736e-001 -2.928974e+000 189 177 173
-4.153692e-001 7.659660e-002 -3.038378e+000 185 99 127
-4.088399e-001 6.351356e-002 -2.971064e+000 185 99 127
-6.644605e-001 -5.714777e-002 -2.946958e+000 155 192 183
-5.624649e-001 2.034589e-002 -2.990868e+000 193 97 132
-5.624649e-001 2.034589e-002 -2.990868e+000 193 97 132
-4.855194e-001 4.340573e-002 -3.010612e+000 71 147 162
-3.674388e-001 4.743811e-002 -3.003826e+000 184 183 196
-7.310902e-001 -1.386749e-001 -2.956307e+000 203 104 126
4.614828e-002 -2.438214e-001 -2.941038e+000 213 213 211
1.196889e-001 -1.932233e-001 -2.948040e+000 76 24 16
8.748481e-002 -2.055200e-001 -2.941410e+000 214 213 209
-6.885374e-001 -3.101953e-001 -3.031629e+000 180 162 129
-3.289761e-002 -2.600504e-001 -2.926283e+000 218 219 220
2.785911e-002 -2.819901e-001 -2.949560e+000 25 25 23
2.016532e-002 -3.197442e-001 -2.960474e+000 22 22 20
2.016532e-002 -3.197442e-001 -2.960474e+000 22 22 20
8.126750e-002 -2.695153e-001 -2.955197e+000 28 24 21
8.147267e-002 -2.702945e-001 -2.954773e+000 28 24 21
1.427788e-001 -3.311107e-001 -2.990051e+000 35 32 33
-3.559200e-002 -3.864379e-001 -2.968560e+000 29 24 21
7.277919e-002 -3.514889e-001 -2.978795e+000 24 24 22
-6.553718e-001 -4.647912e-001 -3.094136e+000 122 148 138
-4.612377e-001 -5.399827e-001 -3.072149e+000 25 44 24
-4.491756e-001 -5.649570e-001 -3.088805e+000 112 167 114
-3.413665e-001 -5.268007e-001 -3.109803e+000 22 24 17
-6.744882e-001 -8.373314e-001 -3.154123e+000 165 75 99
-4.197542e-001 -8.949926e-001 -3.173002e+000 103 104 94
-5.422344e-002 -8.788497e-001 -3.097558e+000 40 30 4
1.183360e-001 -9.399286e-001 -2.943363e+000 55 64 69
1.183360e-001 -9.399286e-001 -2.943363e+000 55 64 69
1.558665e-001 -9.176255e-001 -2.988339e+000 104 120 100
3.262970e-001 -9.392889e-001 -2.901683e+000 39 56 45
-3.061807e-001 -9.903190e-001 -2.995578e+000 99 122 110
-1.143320e-002 -9.687361e-001 -2.948084e+000 126 139 132
1.080619e-001 -9.901951e-001 -2.889419e+000 37 46 50
1.092810e-001 -9.911171e-001 -2.905224e+000 37 46 50
8.621572e-001 -9.968420e-001 -2.825887e+000 149 150 142
7.982891e-001 -1.033122e+000 -2.800694e+000 144 148 144
2.224610e-001 1.026946e+000 -2.856091e+000 210 222 220
-3.323975e-001 9.819494e-001 -3.023104e+000 139 138 133
-8.519280e-001 8.094594e-001 -2.859601e+000 175 170 166
-3.310454e-001 9.248142e-001 -3.034120e+000 184 190 183
-8.098916e-001 5.539038e-001 -2.843956e+000 154 149 145
-1.912453e-001 6.991400e-001 -3.308275e+000 225 135 162
4.334225e-001 5.387326e-001 -3.049624e+000 100 3 2
-4.578008e-003 3.555670e-001 -3.131872e+000 229 116 155
-5.969963e-001 1.427561e-001 -2.973250e+000 230 109 149
-5.969963e-001 1.427561e-001 -2.973250e+000 230 109 149
-3.066922e-001 2.457983e-001 -3.044461e+000 228 113 150
-3.066922e-001 2.457983e-001 -3.044461e+000 228 113 150
-8.442280e-001 3.270827e-002 -2.861071e+000 189 158 176
-7.327928e-001 7.221658e-002 -2.892506e+000 218 96 142
-6.671962e-001 3.277646e-002 -2.935823e+000 112 183 193
-8.120094e-001 -1.081141e-001 -2.916487e+000 135 178 191
-7.707413e-001 -9.949949e-002 -2.932761e+000 217 93 135
-7.978037e-001 -1.642752e-001 -2.939945e+000 150 179 194
-4.606040e-001 -6.730752e-002 -2.988119e+000 88 97 88
-4.384738e-001 -1.596751e-001 -2.985528e+000 85 106 89
-4.323253e-001 -1.540525e-001 -2.994828e+000 85 106 89
1.730307e-001 -1.622578e-001 -2.947825e+000 124 4 2
-1.942634e-002 -3.246299e-001 -2.953171e+000 220 219 217
-5.111924e-002 -4.843929e-001 -2.997580e+000 213 193 54
-3.680825e-001 -1.020343e+000 -2.949576e+000 114 134 125
1.730870e-001 -9.845069e-001 -2.871005e+000 164 144 88
1.719161e-001 -9.865178e-001 -2.878036e+000 164 144 88
-2.770442e-001 -1.088776e+000 -2.825704e+000 19 59 40
-3.931009e-001 9.455359e-001 -3.018905e+000 188 189 184
-3.906927e-001 9.392647e-001 -3.011240e+000 188 189 184
1.635546e-001 9.436403e-001 -2.936239e+000 196 209 209
-3.305794e-001 8.020808e-001 -3.047267e+000 88 74 64
9.366835e-001 7.786671e-001 -3.094185e+000 207 219 215
7.623241e-002 2.519613e-001 -3.223509e+000 189 185 188
-6.984197e-001 -1.429567e-002 -2.930232e+000 221 97 140
-7.208909e-001 -7.124019e-002 -2.940920e+000 112 167 186
-5.973325e-001 -1.716924e-001 -2.931263e+000 106 118 104
-4.301073e-001 -1.153435e-001 -2.982746e+000 87 100 90
-4.986087e-001 -3.357319e-001 -3.007192e+000 55 60 51
2.264680e-001 -2.630733e-001 -2.993210e+000 209 209 211
-3.732356e-001 -7.437353e-001 -3.154146e+000 40 44 35
1.032840e+000 -7.448788e-001 -3.073244e+000 17 22 11
-4.363024e-001 -7.792522e-001 -3.143832e+000 101 159 106
-3.775351e-001 -8.005220e-001 -3.183267e+000 75 158 109
-3.117425e-001 -7.750626e-001 -3.205736e+000 74 151 101
1.671434e-001 -8.270255e-001 -2.984128e+000 224 229 81
5.973244e-001 -9.268134e-001 -2.874653e+000 8 7 3
-2.369112e-001 -9.621410e-001 -2.958378e+000 15 16 11
1.857239e-002 -9.961518e-001 -2.904401e+000 39 46 42
-2.755933e-001 -1.047365e+000 -2.915134e+000 32 64 49
-1.864502e-001 1.032310e+000 -3.040109e+000 177 177 169
4.092274e-001 1.181522e+000 -3.121105e+000 203 221 223
-5.298167e-001 7.560093e-001 -3.016922e+000 175 175 164
-1.664987e-001 7.063737e-001 -3.189134e+000 235 243 238
-2.474641e-002 -1.139003e-001 -2.885144e+000 196 123 76
-1.048186e-001 -1.317433e-001 -2.873438e+000 190 113 73
-1.048186e-001 -1.317433e-001 -2.873438e+000 190 113 73
-5.325726e-001 -2.001866e-001 -2.947459e+000 84 88 74
-9.497149e-002 -1.947278e-001 -2.889264e+000 210 210 205
-4.380431e-002 -1.796471e-001 -2.901529e+000 219 223 220
1.304299e-001 -3.934738e-001 -2.998007e+000 222 222 220
-3.827974e-001 -5.053471e-001 -3.104062e+000 104 167 105
-3.887396e-001 -6.007496e-001 -3.104912e+000 43 33 31
5.326597e-001 -8.339717e-001 -2.982362e+000 244 250 98
-1.142772e-001 1.058172e+000 -3.045656e+000 148 141 135
2.327232e-001 9.084872e-001 -2.938087e+000 57 37 26
-2.573336e-001 8.683532e-001 -3.054270e+000 182 192 181
-3.702640e-001 -1.068487e+000 -2.877609e+000 32 37 40
-1.436965e-001 9.485112e-001 -3.098168e+000 180 182 177
4.814688e-001 1.083235e+000 -3.100568e+000 40 36 27
4.814688e-001 1.083235e+000 -3.100568e+000 40 36 27
2.036979e-001 8.701508e-001 -3.151492e+000 119 128 125
-8.206381e-001 4.509309e-001 -2.923593e+000 71 50 39
1.541739e-001 -2.084728e-001 -2.950582e+000 209 60 49
-4.286942e-001 -3.262372e-001 -3.032947e+000 99 180 116
-4.428324e-001 -4.468395e-001 -3.043680e+000 49 39 38
-4.513713e-001 -4.456021e-001 -3.075986e+000 49 39 38
-4.229630e-001 -6.870488e-001 -3.127367e+000 98 172 105
1.492928e-002 -8.228056e-001 -3.035240e+000 233 234 80
-1.324598e-001 7.978619e-001 -3.118133e+000 111 94 78
5.895448e-001 6.415646e-001 -2.988965e+000 84 11 3
5.835426e-002 -5.113411e-001 -3.020866e+000 17 15 15
-6.200035e-001 -7.686973e-001 -3.180319e+000 76 156 164
2.584745e-001 -8.873649e-001 -2.999656e+000 67 47 9
-4.232133e-001 6.406151e-001 -3.039026e+000 235 239 240
-6.472406e-001 5.071651e-001 -2.895601e+000 231 235 236
-8.183443e-002 -3.845831e-001 -2.991662e+000 213 184 166
9.395161e-002 -7.357000e-001 -3.055430e+000 223 199 51
-1.562438e-001 1.120109e+000 -2.988446e+000 186 189 182
-2.296346e-002 1.181013e+000 -3.008821e+000 168 170 165
3.810396e-002 1.211478e+000 -3.016015e+000 171 174 165
-9.228063e-001 7.231888e-001 -2.904564e+000 117 107 105
-1.031640e+000 6.559277e-001 -2.989583e+000 70 56 54
8.977667e-001 9.440825e-001 -3.046579e+000 164 183 163
-8.228298e-001 1.405099e-001 -2.845273e+000 74 169 192
-8.155988e-001 -8.751290e-002 -2.899909e+000 193 127 154
2.000388e-001 -1.449460e-001 -2.945774e+000 239 38 39
2.501819e-001 -1.625183e-001 -2.965267e+000 254 49 55
-1.839121e-001 -3.095032e-001 -2.906473e+000 157 84 40
-1.796269e-001 -2.929424e-001 -2.908307e+000 188 116 68
1.055306e-001 -2.525080e-001 -2.960411e+000 45 17 12
1.323830e-001 -3.133130e-001 -2.983389e+000 68 69 69
1.323830e-001 -3.133130e-001 -2.983389e+000 68 69 69
2.771676e-001 -2.382285e-001 -2.995368e+000 241 58 53
2.540240e-001 -3.272747e-001 -3.016768e+000 179 164 161
1.301322e-001 -3.571973e-001 -2.994118e+000 196 196 194
8.886115e-002 -5.555413e-001 -3.050073e+000 150 129 133
1.699169e-001 -5.361342e-001 -3.058836e+000 165 125 132
1.952154e-001 -5.143279e-001 -3.023232e+000 37 28 25
-6.765420e-001 -7.804316e-001 -3.157784e+000 155 38 65
-4.647757e-001 -9.801511e-001 -2.991367e+000 42 60 54
-1.625786e-001 -9.898152e-001 -2.949302e+000 9 16 12
5.718368e-001 -9.725181e-001 -2.861041e+000 35 80 57
1.411927e+000 -1.017933e+000 -3.129570e+000 176 176 174
-7.585566e-002 1.129274e+000 -2.996452e+000 173 174 169
-9.569819e-001 9.506779e-001 -2.939123e+000 143 128 130
-2.970093e-001 9.838973e-001 -2.981833e+000 183 181 174
-2.970093e-001 9.838973e-001 -2.981833e+000 183 181 174
8.567580e-001 9.888087e-001 -2.995352e+000 157 169 149
-3.311324e-001 7.477486e-001 -3.010906e+000 241 238 233
3.330009e-001 7.868452e-001 -2.974879e+000 91 131 77
-2.414926e-001 2.025788e-001 -3.069551e+000 142 196 216
-1.201174e-001 3.085664e-001 -3.099809e+000 194 180 194
-7.751068e-001 -1.976508e-001 -2.958580e+000 187 140 162
2.027016e-001 -3.958471e-001 -3.017998e+000 233 224 225
-6.738233e-001 -4.415732e-001 -3.060018e+000 197 73 115
-6.738233e-001 -4.415732e-001 -3.060018e+000 197 73 115
-7.211958e-001 -4.998707e-001 -3.058171e+000 198 114 130
-6.189692e-001 -6.732055e-001 -3.165061e+000 68 148 174
-3.059052e-001 -7.356318e-001 -3.175080e+000 118 133 120
-3.081522e-001 -7.372395e-001 -3.178530e+000 118 133 120
-4.472082e-001 -9.270153e-001 -3.060570e+000 19 30 31
-1.002592e+000 8.306488e-001 -2.974890e+000 103 83 76
-9.670465e-001 7.745957e-001 -2.933194e+000 51 32 32
-2.306073e-001 3.116899e-001 -3.053898e+000 78 198 223
-5.110378e-001 1.624651e-001 -2.957651e+000 92 184 211
-6.616670e-001 7.658118e-003 -2.949634e+000 103 178 199
2.597054e-001 -1.277985e-001 -2.956338e+000 245 50 39
2.325829e-001 -1.506412e-001 -2.959262e+000 129 9 3
2.325829e-001 -1.506412e-001 -2.959262e+000 129 9 3
2.089751e-001 -3.289758e-001 -3.006464e+000 31 28 23
-2.876146e-001 -1.040199e+000 -2.911097e+000 18 52 35
-9.732814e-001 5.193153e-001 -2.894974e+000 159 149 150
3.609311e-001 6.187429e-001 -2.972046e+000 60 59 27
6.787678e-002 3.165891e-001 -3.172456e+000 125 199 216
-7.083040e-001 -2.276223e-001 -2.991378e+000 186 100 112
2.702909e-002 -2.786964e-001 -2.951724e+000 25 25 23
-6.791753e-001 -8.369449e-001 -3.191808e+000 165 75 99
5.906454e-002 1.160597e+000 -3.037076e+000 178 181 174
1.389699e-001 1.187693e+000 -3.006027e+000 174 180 176
-4.786610e-001 -1.775011e-001 -2.975482e+000 85 110 89
-1.383207e-001 -2.136218e-001 -2.893779e+000 182 124 89
-6.298274e-002 -2.322722e-001 -2.915082e+000 193 190 187
-9.492751e-001 9.214436e-001 -2.951626e+000 164 155 154
2.262603e-001 -2.651741e-001 -2.985797e+000 209 209 211
2.411771e-001 -3.658223e-001 -3.024419e+000 207 214 210
4.358614e-001 -9.522022e-001 -2.859006e+000 21 70 44
1.396689e-002 -8.201306e-001 -3.030790e+000 233 234 80
-6.183479e-001 -7.660491e-001 -3.186871e+000 76 156 164
1.141994e-001 -6.953103e-002 -2.934080e+000 221 227 224
1.169648e-001 -5.944151e-002 -2.995161e+000 221 227 224
-4.515051e-001 -2.656994e-001 -3.013362e+000 112 187 131
7.074901e-001 1.095817e+000 -2.836073e+000 205 218 220
-3.351111e-001 8.419576e-001 -2.977196e+000 95 84 74
-3.442059e-001 8.514245e-001 -3.013210e+000 95 84 74
3.462735e-001 8.500016e-001 -2.932998e+000 33 56 64
3.462735e-001 8.500016e-001 -2.932998e+000 33 56 64
8.964790e-001 9.397737e-001 -2.965087e+000 200 211 209
9.531066e-001 9.289073e-001 -3.045622e+000 211 222 222
8.836600e-001 8.806621e-001 -3.084463e+000 212 225 223
9.399810e-001 7.554063e-001 -2.989097e+000 171 183 172
9.185045e-001 6.499797e-001 -3.247808e+000 104 121 87
-5.368016e-001 1.415871e-001 -2.970360e+000 72 171 201
-4.732291e-001 1.786468e-001 -2.992294e+000 205 104 144
-1.726865e-001 2.213578e-001 -3.101489e+000 175 174 202
-5.003053e-001 -8.627059e-002 -2.939224e+000 76 96 82
1.460647e+000 4.290242e-001 -3.464306e+000 207 210 203
-6.931666e-001 -2.274043e-001 -3.001515e+000 61 30 27
-1.200038e-001 -1.796603e-001 -2.879416e+000 226 206 187
-1.198394e-001 -1.804911e-001 -2.879959e+000 226 206 187
-1.374767e-002 -2.102102e-001 -2.915580e+000 23 26 27
9.374683e-002 -1.856472e-001 -2.941526e+000 188 194 197
1.673830e-001 -1.084832e-001 -2.922748e+000 218 182 161
-7.629153e-001 -4.685723e-001 -3.068576e+000 26 118 132
-1.892038e-001 -3.627066e-001 -2.928338e+000 98 45 15
3.324969e-003 -4.253202e-001 -3.005249e+000 80 85 83
-4.542916e-001 -6.241833e-001 -3.097285e+000 9 66 26
8.056161e-001 -5.649122e-001 -3.385781e+000 126 133 126
3.954514e-001 -7.122805e-001 -3.184913e+000 178 84 57
9.940950e-001 -6.394637e-001 -3.288496e+000 16 16 20
-2.023126e-001 -9.207730e-001 -2.979674e+000 25 67 137
-2.024263e-001 -9.202666e-001 -2.979486e+000 25 67 137
-1.540398e-001 -9.134421e-001 -2.985804e+000 105 136 186
2.953450e-001 -8.111705e-001 -2.982338e+000 65 84 28
-2.306544e-001 -9.339703e-001 -2.977333e+000 167 194 234
2.424160e-001 1.072230e+000 -2.858265e+000 213 226 228
-2.048829e-001 1.049350e+000 -3.010870e+000 169 170 162
-3.418188e-001 9.638093e-001 -3.012539e+000 127 127 123
-7.048681e-002 8.364789e-001 -3.001138e+000 130 128 123
6.097463e-001 9.724463e-001 -3.002738e+000 213 231 238
5.978435e-001 8.996270e-001 -2.967193e+000 199 227 228
8.122536e-001 9.678039e-001 -3.099367e+000 188 195 191
8.859555e-001 9.303263e-001 -2.922804e+000 218 231 224
9.118571e-001 8.795665e-001 -2.893207e+000 230 239 238
-2.551783e-002 7.989607e-001 -3.047544e+000 142 134 125
3.650928e-001 8.204389e-001 -2.973627e+000 111 167 93
6.870868e-001 6.039802e-001 -3.051205e+000 223 33 34
-9.968521e-002 3.288292e-001 -3.113529e+000 97 188 219
9.916435e-001 4.664682e-001 -3.109879e+000 180 188 188
1.496804e+000 7.183086e-001 -3.513771e+000 186 185 184
-6.036274e-001 -2.436905e-001 -2.956541e+000 59 84 63
-7.379749e-002 -2.232807e-001 -2.909268e+000 28 27 24
-3.739466e-002 -3.037421e-001 -2.942327e+000 217 219 218
2.371562e-001 -1.855491e-001 -2.970082e+000 140 18 8
2.384471e-001 -1.840997e-001 -2.969578e+000 140 18 8
-2.638160e-002 -3.602741e-001 -2.959607e+000 206 208 205
2.678899e-001 -3.823768e-001 -3.022600e+000 180 178 177
2.610711e-001 -5.133330e-001 -3.072367e+000 203 164 157
-3.369138e-001 -7.070149e-001 -3.189722e+000 109 138 104
3.755768e-001 -7.265611e-001 -3.193725e+000 235 194 134
-1.573010e-001 -8.946140e-001 -2.973917e+000 63 74 87
2.009758e-001 -8.022160e-001 -2.998479e+000 220 231 140
-1.614810e-001 -9.980134e-001 -2.972449e+000 9 11 10
1.085842e+000 -7.414156e-001 -3.008766e+000 77 97 46
-4.634100e-001 -1.068631e+000 -2.952282e+000 24 34 30
-2.460593e-001 -1.038151e+000 -2.950140e+000 55 81 72
5.406677e-001 -8.903738e-001 -2.976111e+000 13 17 2
5.517964e-001 -8.989691e-001 -2.944501e+000 125 122 110
1.510012e+000 -7.973272e-001 -3.070957e+000 51 47 46
-7.001735e-002 8.029383e-001 -3.029397e+000 104 94 87
6.199967e-001 9.354514e-001 -2.992013e+000 27 37 45
-2.682177e-001 7.566170e-001 -3.032179e+000 186 186 184
-3.593914e-002 7.527484e-001 -3.085721e+000 136 123 114
-1.524843e-001 7.464303e-001 -3.185381e+000 219 235 205
-1.702103e-003 4.015113e-001 -3.121877e+000 225 114 159
-6.540350e-001 1.107566e-001 -2.914989e+000 69 171 197
1.018950e+000 4.596776e-001 -3.218644e+000 156 168 153
-8.860985e-001 -4.327718e-002 -2.877370e+000 187 111 134
1.090778e+000 4.359314e-001 -3.346678e+000 114 122 98
7.206795e-002 -2.082447e-001 -2.937149e+000 212 213 210
7.206795e-002 -2.082447e-001 -2.937149e+000 212 213 210
1.426497e+000 2.230156e-001 -3.562607e+000 199 207 196
-5.691547e-001 -3.342366e-001 -2.988117e+000 32 44 30
2.533536e-001 -2.240103e-001 -2.988903e+000 88 2 0
-6.632923e-001 -4.964033e-001 -3.076160e+000 54 155 182
-3.422954e-001 -4.887516e-001 -3.128805e+000 26 31 10
-6.274322e-001 -6.786119e-001 -3.177516e+000 62 146 170
-2.918517e-001 -1.011259e+000 -2.976962e+000 29 61 47
5.426189e-002 -8.919111e-001 -3.051163e+000 40 22 0
3.061091e-001 -8.664339e-001 -2.984572e+000 147 127 43
1.099114e+000 -7.345600e-001 -2.888895e+000 87 111 47
8.838206e-002 -9.687377e-001 -2.928886e+000 125 138 132
-4.213204e-001 -1.175633e+000 -2.826054e+000 25 31 29
-4.213204e-001 -1.175633e+000 -2.826054e+000 25 31 29
-4.405818e-001 -1.202366e+000 -2.820172e+000 15 40 26
1.423592e+000 -9.967438e-001 -3.081476e+000 183 187 186
5.242332e-001 1.317250e+000 -2.926384e+000 187 199 195
-2.141267e-001 9.322171e-001 -3.115197e+000 193 203 195
9.067681e-001 9.054431e-001 -3.082315e+000 166 179 169
8.881114e-001 8.882043e-001 -3.050227e+000 166 179 169
-5.397553e-001 3.890042e-001 -2.895514e+000 157 185 192
1.507431e+000 7.163437e-001 -3.469750e+000 55 57 53
1.507431e+000 7.163437e-001 -3.469750e+000 55 57 53
1.194876e-001 -1.932571e-001 -2.948464e+000 49 13 11
-3.462877e-002 -4.372870e-001 -2.982280e+000 42 24 21
3.607727e-001 -7.137028e-001 -3.131566e+000 203 193 79
5.032927e-001 -7.527581e-001 -2.957285e+000 119 127 115
1.006552e+000 -7.041436e-001 -3.068929e+000 119 133 129
3.271966e-001 -9.687415e-001 -2.873333e+000 109 126 118
1.436631e+000 -7.338207e-001 -2.963232e+000 115 111 100
-4.482003e-001 -1.156014e+000 -2.860778e+000 102 111 108
-2.644927e-001 -1.135253e+000 -2.850604e+000 60 78 70
2.702225e-002 -1.036822e+000 -2.888864e+000 180 196 195
-2.423246e-001 -1.159085e+000 -2.839083e+000 11 45 28
4.891367e-001 1.242173e+000 -2.834137e+000 209 216 221
-9.689946e-001 7.442151e-001 -2.932685e+000 64 40 37
-5.170318e-001 4.369822e-001 -2.927742e+000 208 110 138
9.847258e-001 7.025992e-001 -3.141555e+000 112 122 108
1.017466e+000 6.839337e-001 -3.079808e+000 218 233 230
-5.174550e-001 1.561810e-001 -2.961559e+000 58 174 209
1.347892e+000 4.284159e-001 -3.443975e+000 205 210 203
-1.778413e-001 -2.813629e-001 -2.895303e+000 145 88 58
-6.513692e-002 -4.180839e-001 -2.974692e+000 201 200 193
-6.761172e-002 -4.218686e-001 -2.984956e+000 201 200 193
-6.534265e-001 -7.229947e-001 -3.156629e+000 144 126 141
8.929921e-001 -6.096063e-001 -3.115625e+000 137 143 137
-1.198541e-001 -8.851426e-001 -3.120869e+000 113 110 115
-8.265081e-002 -9.618619e-001 -2.962322e+000 145 155 154
8.629610e-002 -8.911955e-001 -3.048028e+000 39 26 6
1.058854e+000 -7.171031e-001 -3.044174e+000 85 118 47
-4.981353e-001 -1.122408e+000 -2.815868e+000 10 14 13
2.103543e-001 -9.926883e-001 -2.881413e+000 52 40 38
5.720730e-001 -8.742313e-001 -2.931227e+000 18 51 7
5.720730e-001 -8.742313e-001 -2.931227e+000 18 51 7
5.299537e-001 -9.292247e-001 -2.893401e+000 19 62 27
-5.387679e-001 -1.193696e+000 -2.849717e+000 37 70 57
-3.786112e-001 -1.210022e+000 -2.795940e+000 8 13 12
-1.011335e-001 1.115179e+000 -2.989822e+000 174 178 172
1.378618e+000 1.386532e+000 -3.303550e+000 192 199 205
8.541288e-001 9.000914e-001 -2.998885e+000 122 126 111
-2.843539e-001 6.953014e-001 -3.093671e+000 169 168 155
-2.790321e-001 6.910861e-001 -3.084204e+000 169 168 155
-4.555377e-001 1.902545e-001 -3.000789e+000 221 94 139
-4.555377e-001 1.902545e-001 -3.000789e+000 221 94 139
1.155059e+000 4.037168e-001 -3.381207e+000 206 217 211
1.303477e+000 3.587629e-001 -3.489004e+000 167 177 168
-5.697904e-001 -1.286244e-001 -2.940712e+000 63 75 65
-5.250406e-001 -2.451763e-001 -2.975456e+000 82 168 121
-8.830137e-002 -2.848640e-001 -2.923907e+000 202 206 203
6.165013e-002 -3.112670e-001 -2.965734e+000 123 125 122
2.490547e-002 -9.430580e-001 -2.977598e+000 42 54 45
2.490547e-002 -9.430580e-001 -2.977598e+000 42 54 45
-1.708588e-001 -1.036864e+000 -2.926424e+000 14 52 37
3.951378e-001 1.200743e+000 -2.867129e+000 217 228 230
2.933769e-001 1.068648e+000 -2.824542e+000 216 228 226
8.963419e-001 4.999994e-001 -3.464972e+000 84 143 69
-2.573439e-001 -9.217063e-002 -2.895034e+000 187 168 151
1.283786e+000 3.135870e-001 -3.555390e+000 104 92 83
-1.940133e-001 -2.147984e-001 -2.879775e+000 149 94 55
-3.815029e-001 -5.064910e-001 -3.105358e+000 105 169 106
4.399411e-001 -9.359963e-001 -2.873912e+000 15 64 38
1.388311e+000 -7.406467e-001 -2.952749e+000 47 36 17
8.108755e-001 9.075474e-001 -3.081686e+000 195 215 212
7.027749e-001 7.868855e-001 -3.064754e+000 142 209 118
1.006121e+000 7.903576e-001 -3.142889e+000 221 234 231
9.469313e-001 6.834657e-001 -3.198456e+000 184 210 201
1.047593e+000 3.286982e-001 -3.375785e+000 118 192 98
-2.744573e-002 -1.129421e-001 -2.886134e+000 150 101 68
9.107057e-001 -4.200180e-001 -3.296798e+000 103 167 81
9.874014e-001 -6.328170e-001 -3.050773e+000 10 17 9
9.874014e-001 -6.328170e-001 -3.050773e+000 10 17 9
-4.969448e-001 -1.107542e+000 -2.893682e+000 17 16 17
-5.190498e-001 7.250218e-001 -2.939424e+000 173 174 168
-3.344797e-001 -1.667334e-001 -2.971427e+000 16 14 10
-3.448853e-001 -1.626747e-001 -3.004997e+000 16 14 10
-4.175688e-001 -6.884763e-001 -3.130922e+000 94 169 98
1.011975e+000 -5.010851e-001 -3.189101e+000 114 180 92
5.656046e-001 -7.519680e-001 -2.985036e+000 22 27 5
5.427009e-001 4.959975e-001 -3.091753e+000 208 29 28
5.680319e-001 -5.586019e-001 -3.228513e+000 113 181 93
4.434139e-001 -9.088707e-001 -2.877437e+000 89 92 54
1.516427e+000 1.101897e+000 -3.390938e+000 29 26 27
1.007516e+000 5.941396e-001 -3.138119e+000 204 220 217
1.162012e-001 -8.759847e-002 -2.885493e+000 217 226 223
-6.799963e-001 -5.812398e-001 -3.106577e+000 178 177 157
6.332260e-001 1.058046e+000 -2.994173e+000 33 31 30
5.674419e-001 8.281064e-001 -2.990964e+000 136 209 113
-6.300223e-001 4.956207e-001 -2.857334e+000 220 228 231
-4.300915e-001 6.597179e-001 -3.056239e+000 229 234 237
-5.359958e-001 -4.457394e-001 -3.048997e+000 28 35 25
1.160702e+000 -4.782309e-001 -3.157366e+000 134 135 132
-2.870947e-001 -5.078480e-001 -3.080996e+000 10 8 8
1.176076e+000 1.353390e+000 -3.525264e+000 229 235 235
2.529972e-003 -2.781438e-001 -2.943187e+000 23 21 23
-6.695265e-001 -4.977756e-001 -3.090861e+000 64 155 175
1.172309e-001 -3.270796e-001 -2.982568e+000 173 178 168
-6.900817e-001 -6.860553e-001 -3.119970e+000 160 50 71
-4.715046e-001 -6.337229e-001 -3.095243e+000 103 143 110
3.020037e-001 -5.137607e-001 -3.056648e+000 175 134 136
-8.700792e-001 -1.132258e-001 -2.908290e+000 143 158 175
1.966004e-001 -3.458494e-001 -2.994934e+000 209 209 209
3.183975e-002 -4.189159e-001 -2.981486e+000 210 211 209
-4.331247e-001 -3.282513e-001 -3.048934e+000 97 175 121
-9.542353e-001 9.638864e-001 -2.926512e+000 93 82 82
6.443699e-001 1.181094e+000 -2.988689e+000 126 134 116
7.905681e-001 1.114935e+000 -2.983615e+000 162 172 164
-9.860266e-001 7.759097e-001 -2.897000e+000 93 72 68
-7.852901e-001 5.480345e-001 -2.846620e+000 235 232 235
-7.852901e-001 5.480345e-001 -2.846620e+000 235 232 235
3.544097e-001 6.625462e-001 -2.994320e+000 38 60 24
4.704412e-001 6.013042e-001 -3.085378e+000 85 19 13
9.482548e-001 7.386802e-001 -3.137825e+000 147 159 140
1.054072e+000 6.995078e-001 -3.083837e+000 186 201 198
-1.009274e+000 3.897586e-001 -2.938123e+000 90 74 67
-8.229712e-001 1.584751e-002 -2.873180e+000 148 167 179
-8.367404e-001 -7.339673e-003 -2.869434e+000 195 122 143
-7.562439e-001 -6.472712e-002 -2.932096e+000 145 164 174
1.728697e-001 -1.262608e-001 -2.945445e+000 233 53 56
2.009009e-001 -2.302113e-001 -2.979055e+000 52 24 8
-6.408489e-001 -7.320310e-001 -3.163465e+000 127 135 164
6.199943e-001 1.189080e+000 -2.978205e+000 127 139 124
-3.302176e-001 1.007912e+000 -3.004071e+000 131 130 125
-3.486736e-001 9.723428e-001 -3.027866e+000 124 123 118
7.721577e-001 1.100800e+000 -3.016855e+000 140 147 131
-3.003066e-001 7.559429e-001 -3.041011e+000 96 91 87
-7.966104e-001 -8.884148e-002 -2.908139e+000 162 168 182
-6.549121e-001 -9.291986e-002 -2.901430e+000 20 35 34
5.970467e-002 -3.741399e-001 -2.986046e+000 208 208 206
6.672068e-003 -4.042232e-001 -2.985053e+000 34 34 33
3.084067e-002 -4.390157e-001 -3.001878e+000 220 219 217
1.928271e-001 -5.327808e-001 -3.049753e+000 159 116 125
9.543658e-001 -4.933965e-001 -3.193958e+000 115 171 93
-3.168725e-001 -1.009708e+000 -2.989154e+000 47 85 67
-3.168725e-001 -1.009708e+000 -2.989154e+000 47 85 67
-2.731430e-001 -9.857519e-001 -3.003960e+000 58 87 69
1.107976e-001 1.176077e+000 -2.950668e+000 181 185 181
-1.003931e+000 7.341542e-001 -2.910269e+000 107 88 81
-6.042922e-002 5.820968e-001 -3.047300e+000 230 131 163
-6.042922e-002 5.820968e-001 -3.047300e+000 230 131 163
1.027151e+000 6.781272e-001 -3.091491e+000 212 224 221
-3.215021e-001 1.672097e-001 -3.040071e+000 172 172 188
2.424366e-001 -5.235736e-001 -3.055204e+000 152 117 115
1.028690e+000 -7.554567e-001 -2.937484e+000 78 99 40
2.808498e-003 8.115780e-001 -3.043098e+000 108 94 85
3.194990e-001 8.632439e-001 -2.993408e+000 28 36 44
-7.259420e-001 3.929626e-001 -2.962049e+000 94 180 196
-5.767239e-002 4.610800e-001 -3.073323e+000 226 218 205
-7.000921e-001 7.728299e-002 -2.913224e+000 177 164 175
1.424476e-001 -3.336097e-001 -2.989410e+000 35 32 33
4.668061e-001 1.229387e+000 -2.970818e+000 157 165 154
-7.405603e-001 4.023772e-001 -2.887545e+000 227 233 236
-5.781062e-001 -2.429589e-001 -2.956021e+000 109 130 112
-5.633765e-001 -2.985039e-001 -2.977152e+000 91 100 86
-1.017077e-001 -4.211705e-001 -2.972649e+000 166 102 64
9.928158e-001 -7.277784e-001 -3.125454e+000 136 147 141
5.781397e-001 1.007439e+000 -3.051136e+000 213 239 245
-4.058771e-001 4.890987e-001 -2.918042e+000 238 239 243
-5.586912e-001 -1.309261e-001 -2.922415e+000 80 91 81
-4.298401e-002 -1.757726e-001 -2.908920e+000 219 223 220
-6.679196e-004 -6.351512e-001 -3.022701e+000 213 187 40
-5.476985e-001 -2.538799e-001 -2.972038e+000 92 140 106
1.247092e-001 4.060438e-001 -3.194253e+000 18 17 21
4.943003e-001 -7.605740e-001 -3.017844e+000 19 18 9
-2.216960e-001 -6.549746e-001 -3.079706e+000 15 15 7
-7.972907e-001 -9.469616e-002 -2.931378e+000 189 94 126
-3.851719e-001 -1.220142e-001 -3.009219e+000 53 67 61
-7.243604e-001 -2.780330e-001 -2.990784e+000 198 69 114
-5.025470e-002 -2.150754e-001 -2.917246e+000 59 61 59
7.331653e-002 -1.812757e-001 -2.934884e+000 67 66 64
1.073307e-001 -1.741494e-001 -2.944900e+000 33 41 43
1.738314e-001 -1.424151e-001 -2.952565e+000 231 49 44
2.189025e-001 -1.607197e-001 -2.970459e+000 169 38 35
-1.826367e-001 -2.650042e-001 -2.900540e+000 146 89 57
-1.638411e-001 -3.260998e-001 -2.926599e+000 141 87 56
-4.785816e-002 -2.334422e-001 -2.924180e+000 53 55 54
-5.777340e-002 -2.756236e-001 -2.925904e+000 215 217 215
1.444830e-001 -2.094525e-001 -2.961544e+000 145 0 0
1.473112e-001 -2.264342e-001 -2.963753e+000 213 47 42
1.525678e-001 -2.402702e-001 -2.970844e+000 34 19 29
9.755287e-002 -3.483954e-001 -2.984371e+000 16 18 16
9.755287e-002 -3.483954e-001 -2.984371e+000 16 18 16
1.230059e-001 -3.414567e-001 -2.989780e+000 19 21 18
1.230059e-001 -3.414567e-001 -2.989780e+000 19 21 18
-7.588871e-001 -5.069880e-001 -3.056950e+000 196 77 105
1.637270e-002 -4.154261e-001 -2.985605e+000 214 218 219
1.719356e-002 -4.155992e-001 -2.983767e+000 214 218 219
4.607590e-002 -3.947656e-001 -2.982039e+000 79 84 80
-1.525471e-001 -5.309682e-001 -2.979240e+000 84 39 9
3.067989e-001 -5.035992e-001 -3.077751e+000 96 11 6
1.357259e-001 8.967324e-001 -2.940856e+000 183 189 185
-6.732432e-001 3.567110e-001 -2.845036e+000 191 135 152
-5.790991e-001 -3.076409e-001 -2.965142e+000 53 74 61
-6.766558e-001 -4.298636e-001 -3.052658e+000 179 74 105
-7.312778e-001 -5.305867e-001 -3.092157e+000 194 101 126
-3.573368e-001 -5.386699e-001 -3.101264e+000 20 36 16
-1.326956e-001 -6.149113e-001 -3.029997e+000 108 59 36
2.158600e-001 -1.961388e-001 -2.975905e+000 247 42 53
-6.508310e-001 3.583517e-001 -2.858191e+000 206 105 137
-6.936647e-001 -2.968846e-002 -2.938647e+000 212 96 129
-3.624963e-001 -7.468162e-001 -3.136704e+000 31 39 28
-1.748752e-001 1.026208e+000 -3.031647e+000 180 182 171
-1.080158e+000 6.884641e-001 -2.819396e+000 8 8 8
5.994452e-001 8.849342e-001 -3.003339e+000 149 208 147
-3.051471e-001 5.783640e-001 -3.101881e+000 194 147 156
-4.263776e-001 3.267663e-001 -2.707935e+000 68 176 200
-6.872222e-001 7.356954e-002 -2.915610e+000 115 155 175
-8.205599e-001 -1.144198e-001 -2.975947e+000 181 86 124
2.276562e-001 -2.201215e-001 -2.986418e+000 44 18 5
-1.019639e+000 3.078333e-001 -2.821926e+000 202 115 132
2.392008e-001 -5.145937e-001 -3.068121e+000 160 118 121
3.327912e-001 -1.272762e+000 -2.707317e+000 34 20 11
-1.144858e-001 -1.501070e-001 -2.886031e+000 96 64 36
-9.328576e-001 2.842029e-001 -2.799259e+000 147 147 162
-5.563427e-001 1.754168e-001 -2.683430e+000 170 213 183
-5.298261e-001 2.882639e-001 -2.905125e+000 55 172 205
-5.298261e-001 2.882639e-001 -2.905125e+000 55 172 205
-8.107753e-001 -1.629065e-001 -2.951389e+000 147 164 183
1.201166e-001 -1.248754e+000 -2.710194e+000 148 153 149
-6.479254e-001 -1.369029e-001 -2.982369e+000 84 98 82
-7.300277e-001 -3.671805e-001 -3.000564e+000 183 164 130
2.137748e-001 1.043642e+000 -2.747489e+000 188 196 195
7.397419e-001 1.034931e+000 -2.825876e+000 220 230 231
-9.726750e-001 8.430434e-001 -2.879558e+000 70 50 49
3.208070e-001 7.140569e-001 -2.897149e+000 64 95 47
-7.573603e-001 2.791211e-001 -2.830984e+000 215 121 145
-6.873068e-001 9.715936e-002 -2.914576e+000 68 163 186
-2.652223e-001 1.156605e-001 -3.085842e+000 138 103 136
-6.953658e-001 -4.039201e-002 -2.937595e+000 182 92 146
-7.999936e-001 -1.396809e-001 -2.935915e+000 156 131 165
-7.930238e-001 -1.681692e-001 -2.949285e+000 158 149 170
-6.449014e-002 -2.627047e-001 -2.921258e+000 65 61 59
-6.449014e-002 -2.627047e-001 -2.921258e+000 65 61 59
-6.585605e-001 -4.256354e-001 -3.059857e+000 162 73 89
4.440363e-002 -3.418395e-001 -2.972914e+000 201 203 200
1.323381e-001 -3.579676e-001 -2.994107e+000 205 207 206
1.160229e+000 -2.147877e-001 -3.154270e+000 110 69 50
1.024441e+000 -3.862465e-001 -3.237342e+000 74 62 35
-1.809716e-002 -8.138781e-001 -3.092541e+000 234 231 103
-2.558387e-001 -9.054703e-001 -2.994128e+000 173 203 210
-4.905862e-001 -1.031466e+000 -2.964008e+000 141 145 143
-3.249925e-001 -1.006621e+000 -2.949940e+000 35 69 53
4.799012e-001 1.214669e+000 -2.836372e+000 202 217 212
9.687551e-001 6.640597e-001 -3.107055e+000 198 216 214
9.305379e-001 6.107842e-001 -3.170219e+000 107 126 89
-7.705035e-001 -9.011267e-002 -2.942141e+000 203 76 134
-7.664206e-001 -8.619495e-002 -2.935407e+000 203 76 134
9.773701e-001 -4.683131e-001 -3.266012e+000 40 65 10
-2.189953e-001 -9.058612e-001 -2.985933e+000 178 217 244
6.201513e-001 -8.279713e-001 -2.991735e+000 101 159 82
-5.249970e-001 -1.026980e+000 -2.893915e+000 52 63 60
-5.064654e-001 -1.051213e+000 -2.906039e+000 147 145 150
-8.450366e-001 7.779706e-001 -2.826581e+000 162 161 157
-2.760288e-002 8.546553e-001 -2.892491e+000 128 127 123
9.049566e-001 7.380208e-001 -3.101113e+000 134 151 133
1.052083e+000 6.840649e-001 -3.037745e+000 224 234 233
1.195586e-001 2.177742e-001 -3.147260e+000 41 40 22
-8.023281e-001 4.887514e-002 -2.878002e+000 59 161 191
-6.616315e-001 8.669934e-003 -2.941432e+000 107 164 196
-4.966532e-001 -2.642273e-001 -3.002104e+000 51 114 72
1.042688e+000 -3.396487e-001 -3.224582e+000 31 44 20
2.183582e-001 -8.200420e-001 -2.995709e+000 31 41 0
3.348933e-001 -8.136372e-001 -2.980667e+000 51 62 16
-6.150715e-002 -9.223965e-001 -3.045220e+000 33 69 39
-9.564062e-003 -1.022186e+000 -2.882298e+000 25 53 47
3.245730e-001 1.341798e+000 -3.036526e+000 180 192 190
4.704585e-001 1.241612e+000 -2.839088e+000 182 194 190
-9.099031e-001 7.484937e-001 -2.847589e+000 160 149 152
-6.236514e-002 5.832379e-001 -3.020181e+000 221 109 151
-4.547653e-001 6.047788e-002 -3.015713e+000 161 152 180
-6.311659e-001 -2.078651e-002 -2.990012e+000 92 81 114
-3.936699e-001 -7.352353e-002 -2.989628e+000 57 68 62
-4.449465e-001 -6.368803e-001 -3.112902e+000 24 62 29
-2.358999e-001 -8.993809e-001 -3.057511e+000 36 49 51
-4.319341e-001 8.244121e-001 -2.950560e+000 197 200 193
3.080658e-001 8.278137e-001 -2.909088e+000 28 43 49
8.954644e-001 8.987888e-001 -2.951968e+000 219 233 230
-1.060222e+000 4.019951e-001 -2.935954e+000 113 92 86
-8.048987e-001 4.259443e-002 -2.874624e+000 51 159 191
-7.252676e-001 -3.265257e-001 -3.036178e+000 192 54 106
-7.204055e-001 -4.513768e-001 -3.056427e+000 134 149 154
-1.415759e-002 -9.699822e-001 -2.953444e+000 112 124 122
-9.526578e-001 9.507796e-001 -2.870922e+000 39 23 23
6.311052e-002 9.284863e-001 -2.933572e+000 181 186 182
-9.636116e-001 7.326811e-001 -2.925509e+000 53 34 29
-6.417291e-001 3.550713e-001 -2.842226e+000 213 96 136
-1.054612e-001 -1.034894e+000 -2.894610e+000 18 52 37
-1.054612e-001 -1.034894e+000 -2.894610e+000 18 52 37
4.901728e-002 2.003417e-001 -3.137179e+000 224 237 240
-1.924542e-002 -1.124306e-001 -2.885900e+000 119 67 43
-8.909136e-001 1.012914e+000 -2.862055e+000 142 132 131
5.596136e-001 9.682117e-001 -2.980590e+000 224 240 250
-7.463054e-001 6.342804e-001 -2.906623e+000 170 166 153
1.633087e-001 -8.295234e-001 -3.033529e+000 230 233 72
-8.552075e-001 1.245737e-001 -2.815978e+000 182 164 149
-5.909882e-002 -3.756812e-001 -2.975755e+000 60 59 57
1.032978e+000 6.598989e-001 -3.068966e+000 172 182 181
-1.025457e+000 4.526072e-001 -2.922733e+000 76 56 49
-8.274591e-001 1.312924e-001 -2.830291e+000 64 164 181
1.249906e-002 -1.294174e-001 -2.906543e+000 159 138 119
-7.557123e-001 6.005506e-003 -2.915720e+000 175 126 151
9.597839e-001 9.436954e-001 -3.096350e+000 223 238 231
-5.395501e-001 1.521018e-001 -2.954550e+000 99 177 208
2.159492e-002 -2.364410e-001 -2.941274e+000 80 80 78
1.269249e-001 -5.661550e-001 -3.060298e+000 38 32 2
1.842403e-001 -5.944571e-001 -3.052455e+000 217 51 27
9.040392e-002 -8.582361e-001 -2.991220e+000 167 143 13
2.420567e-001 -2.653629e-002 -2.945612e+000 223 58 53
-8.279404e-001 -1.104281e-001 -2.902285e+000 130 177 198
-4.290914e-001 9.097381e-001 -2.951858e+000 170 171 165
-6.289140e-002 -2.299700e-001 -2.920647e+000 193 190 187
-7.193061e-001 4.812576e-002 -2.907881e+000 205 91 122
1.332251e-001 -1.658970e-001 -2.954382e+000 114 14 10
1.455727e-001 -2.766308e-001 -2.975032e+000 90 103 101
1.455727e-001 -2.766308e-001 -2.975032e+000 90 103 101
1.924521e-001 -2.139207e-001 -2.974529e+000 213 56 39
-4.965369e-002 -4.228412e-001 -2.974087e+000 133 129 129
1.431180e-002 -5.746036e-001 -3.023152e+000 104 94 109
3.017986e-001 -5.431449e-001 -3.080611e+000 211 48 45
1.309090e-001 -3.565564e-001 -2.997052e+000 211 213 210
1.880381e-001 -3.717746e-001 -3.013676e+000 19 20 19
1.880381e-001 -3.717746e-001 -3.013676e+000 19 20 19
2.442307e-001 -3.846520e-001 -3.032208e+000 217 217 217
4.621551e-002 -5.863498e-001 -3.031313e+000 17 23 16
2.866805e-001 -5.214670e-001 -3.083210e+000 50 12 5
-7.422917e-001 -4.686074e-001 -3.062975e+000 113 150 165
1.403567e-001 -4.120830e-001 -3.010484e+000 201 201 199
-6.838382e-001 -7.684962e-001 -3.177781e+000 163 36 65
-4.355993e-001 -6.432464e-001 -3.109917e+000 29 71 37
2.174389e-002 -5.539523e-001 -3.025442e+000 35 27 31
-6.612101e-001 -7.465035e-001 -3.167248e+000 195 80 109
-6.417730e-001 -7.292358e-001 -3.168405e+000 121 141 153
-6.092983e-001 -6.987143e-001 -3.174822e+000 60 154 173
-6.669376e-001 -8.064390e-001 -3.177818e+000 153 36 65
-6.669376e-001 -8.064390e-001 -3.177818e+000 153 36 65
7.250580e-002 -2.095372e-001 -2.936606e+000 219 215 214
5.740901e-001 1.255697e+000 -3.016866e+000 153 161 151
6.735746e-001 1.247918e+000 -2.995169e+000 135 145 127
5.716021e-001 1.240296e+000 -3.050784e+000 126 127 113
-1.327954e-001 1.143235e+000 -3.000476e+000 192 193 188
1.775919e-001 1.001207e+000 -2.921033e+000 206 213 211
2.198061e-001 1.005174e+000 -2.986192e+000 106 93 74
2.895288e-001 8.855930e-001 -3.010348e+000 68 68 70
3.150176e-001 8.361187e-001 -3.015011e+000 75 87 87
5.876675e-001 3.982352e-001 -3.029213e+000 53 82 25
1.215672e+000 5.603845e-001 -3.402054e+000 198 202 191
1.241001e+000 5.486186e-001 -3.416714e+000 194 196 185
1.261433e+000 5.704704e-001 -3.402850e+000 204 216 201
-5.414985e-001 1.091255e-001 -2.948171e+000 159 166 191
-5.414985e-001 1.091255e-001 -2.948171e+000 159 166 191
-6.754168e-001 2.958527e-002 -2.923909e+000 109 179 190
-1.237895e-001 -3.594308e-001 -2.931132e+000 147 90 53
6.563015e-002 -3.272429e-001 -2.972949e+000 218 220 219
1.569439e-001 -3.483531e-001 -2.998851e+000 226 226 228
2.278880e-001 -3.350163e-001 -3.008475e+000 228 229 234
2.278880e-001 -3.350163e-001 -3.008475e+000 228 229 234
5.460522e-002 -4.253594e-001 -2.994548e+000 85 84 80
5.460522e-002 -4.253594e-001 -2.994548e+000 85 84 80
2.042238e-001 -8.013781e-001 -2.993323e+000 38 30 0
2.469762e-001 -7.967138e-001 -2.991984e+000 83 83 25
2.326257e-001 1.165678e+000 -2.900774e+000 187 195 188
2.566086e-001 1.158086e+000 -2.907831e+000 219 230 233
8.218917e-001 1.137831e+000 -3.052085e+000 144 155 138
8.482700e-001 1.146947e+000 -3.066276e+000 194 211 197
8.362094e-001 1.120219e+000 -3.076820e+000 138 149 125
2.254467e-001 1.018746e+000 -2.939312e+000 173 180 172
4.755464e-001 6.954355e-001 -2.902499e+000 109 152 83
8.936846e-001 9.109744e-001 -3.199896e+000 174 190 178
9.257575e-001 9.001315e-001 -3.183480e+000 176 189 182
9.829951e-001 8.847555e-001 -3.165062e+000 171 178 171
-9.826237e-001 9.148181e-001 -2.877950e+000 89 53 49
9.984033e-001 7.931259e-001 -3.182436e+000 217 229 227
-4.214393e-001 7.923639e-001 -3.003614e+000 180 180 178
9.131981e-001 7.631012e-001 -3.268445e+000 119 143 122
1.268166e+000 6.301214e-001 -3.425220e+000 180 183 176
1.265234e+000 5.295374e-001 -3.419730e+000 194 196 184
1.071117e+000 3.869686e-001 -3.389036e+000 29 60 5
1.543615e-001 9.951176e-001 -2.913744e+000 164 166 163
-7.920830e-003 7.923632e-001 -3.041423e+000 141 123 114
-7.870566e-001 5.381659e-001 -2.843812e+000 220 221 223
1.310437e+000 4.956555e-001 -3.423228e+000 197 197 184
1.403284e+000 4.778286e-001 -3.499846e+000 211 211 205
-1.432551e-002 -8.817697e-002 -2.874546e+000 213 151 107
-1.202447e-001 -4.455056e-001 -2.967670e+000 174 113 77
1.221929e-001 9.678388e-001 -2.941735e+000 169 171 168
2.608638e-001 1.082262e+000 -3.051902e+000 173 170 162
7.497881e-002 8.172089e-001 -3.026772e+000 120 116 104
3.663089e-001 7.271530e-001 -2.991787e+000 59 79 31
1.062003e+000 4.333882e-001 -3.313726e+000 112 115 91
1.362093e+000 5.095230e-001 -3.454824e+000 98 78 64
1.362093e+000 5.095230e-001 -3.454824e+000 98 78 64
-7.744405e-001 4.899229e-002 -2.879566e+000 161 179 183
2.828010e-001 -3.879811e-001 -3.043955e+000 69 13 10
2.828010e-001 -3.879811e-001 -3.043955e+000 69 13 10
2.502586e-001 -8.051562e-001 -2.997205e+000 59 61 33
-3.126067e-001 9.640578e-001 -2.995645e+000 143 142 138
9.271224e-001 8.147547e-001 -3.224153e+000 135 148 130
1.314564e+000 5.131568e-001 -3.422488e+000 198 201 191
1.317177e+000 4.358517e-001 -3.467718e+000 195 195 189
1.342204e+000 3.855529e-001 -3.505240e+000 118 111 94
1.342204e+000 3.855529e-001 -3.505240e+000 118 111 94
6.285276e-001 2.486340e-001 -3.359939e+000 204 239 83
-1.047230e-001 -3.597159e-001 -2.932927e+000 155 105 70
-1.086064e-001 1.072654e+000 -3.032091e+000 148 141 134
-3.737176e-001 9.148691e-001 -2.982025e+000 202 204 199
3.632023e-002 7.766712e-001 -3.071338e+000 123 112 102
7.736831e-001 7.282035e-001 -3.217777e+000 158 214 120
7.736831e-001 7.282035e-001 -3.217777e+000 158 214 120
1.311370e+000 4.918588e-001 -3.459787e+000 96 68 50
-7.382322e-001 6.079111e-002 -2.891526e+000 214 77 134
-8.409800e-002 -2.888149e-001 -2.920394e+000 217 216 211
2.683022e-001 1.063879e+000 -2.952902e+000 121 109 93
1.805735e-001 9.868862e-001 -2.948607e+000 193 207 207
1.323710e+000 1.149623e+000 -3.353185e+000 117 80 73
-1.256627e-001 9.120792e-001 -3.049380e+000 175 176 171
-1.155975e-001 7.594584e-001 -3.081675e+000 109 100 78
1.979914e-001 8.849589e-001 -3.053631e+000 21 19 22
-8.648071e-001 1.516920e-001 -2.798209e+000 193 171 149
7.250959e-002 -7.051260e-001 -3.077172e+000 222 195 44
2.377330e-001 -3.330154e-001 -3.014909e+000 219 221 219
-1.533517e-001 3.474433e-001 -3.085934e+000 222 121 157
1.338124e+000 3.734112e-001 -3.201531e+000 211 218 210
-6.187022e-002 4.008908e-001 -3.139007e+000 171 209 228
-4.756669e-001 1.303649e-001 -3.030200e+000 180 154 170
-4.449668e-002 2.577458e-001 -3.152377e+000 84 196 224
3.452188e-001 1.053660e+000 -2.803866e+000 211 223 221
4.261132e-001 1.064063e+000 -2.856075e+000 196 206 198
4.462345e-001 1.071280e+000 -2.941715e+000 215 232 231
4.462345e-001 1.071280e+000 -2.941715e+000 215 232 231
8.061345e-001 9.599019e-001 -2.782397e+000 216 223 225
6.187305e-001 8.788738e-001 -2.909519e+000 33 57 61
1.148739e+000 7.859738e-001 -3.041179e+000 210 215 211
1.699816e-001 -1.594617e-001 -2.948514e+000 124 0 0
1.324291e+000 1.081583e+000 -2.963061e+000 187 187 182
-9.178396e-001 2.939037e-001 -2.849246e+000 35 164 177
-9.178396e-001 2.939037e-001 -2.849246e+000 35 164 177
-6.282748e-001 1.893630e-001 -2.978528e+000 210 92 137
-3.290165e-001 2.195724e-001 -3.076028e+000 216 101 138
1.645452e-001 -3.124003e-001 -2.988519e+000 210 217 217
1.427314e+000 3.155846e-001 -3.290761e+000 209 210 205
5.974566e-001 -8.107835e-001 -2.870976e+000 169 188 144
7.040426e-001 1.259701e+000 -2.776125e+000 194 203 202
1.361148e+000 1.098198e+000 -2.980299e+000 196 185 191
1.201230e+000 5.552351e-001 -3.125916e+000 193 200 193
-2.755876e-001 -1.101800e+000 -2.856103e+000 93 114 111
6.540160e-001 8.749193e-001 -2.923539e+000 13 38 47
-4.568748e-001 4.735230e-001 -2.959937e+000 72 182 195
1.117751e+000 7.550409e-001 -3.073716e+000 220 222 215
1.461424e+000 4.176995e-001 -3.295435e+000 170 169 167
-4.546662e-001 -5.442478e-001 -3.087697e+000 14 32 22
-1.660194e-001 3.099793e-001 -3.105995e+000 233 97 142
1.256519e+000 9.012342e-001 -3.009389e+000 124 96 87
4.379438e-001 1.124107e+000 -2.795056e+000 212 224 222
1.205455e+000 2.555164e-001 -3.349804e+000 77 51 46
6.663469e-001 6.426412e-001 -3.026875e+000 44 9 7
-9.706658e-001 2.353433e-001 -2.889658e+000 187 185 170
3.835588e-001 1.025008e+000 -3.353005e+000 206 226 237
5.633625e-002 -2.651203e-001 -2.948842e+000 27 15 18
-5.926012e-001 1.016807e-001 -2.966494e+000 202 105 133
6.692379e-002 -1.838527e-001 -2.925823e+000 43 49 48
1.495946e-001 -1.747094e-001 -2.944162e+000 217 27 33
1.891066e-002 -2.584915e-001 -2.935066e+000 216 209 209
1.766101e-001 -1.812100e-001 -2.950096e+000 113 6 1
1.766101e-001 -1.812100e-001 -2.950096e+000 113 6 1
1.797672e-001 -2.016341e-001 -2.957310e+000 131 0 0
-7.359793e-003 -2.641299e-001 -2.932266e+000 221 215 218
-4.273356e-001 2.178380e-001 -2.898305e+000 60 185 215
1.256283e+000 1.811410e-001 -3.282164e+000 189 197 178
7.724570e-002 -2.647221e-001 -2.958116e+000 29 25 24
-6.466679e-001 -1.324904e-001 -2.983210e+000 23 23 21
-5.613822e-001 2.653281e-001 -2.619137e+000 224 225 226
3.035331e-001 -4.623144e-001 -3.061901e+000 131 22 18
1.021501e+000 -1.094215e-001 -3.023778e+000 105 164 74
8.143732e-002 -5.728129e-001 -3.037986e+000 128 95 97
2.841254e-002 -3.350159e-001 -2.963206e+000 32 32 34
2.841254e-002 -3.350159e-001 -2.963206e+000 32 32 34
2.024052e-002 9.328943e-001 -2.968222e+000 83 82 77
3.764514e-001 6.792302e-001 -2.986602e+000 57 74 40
-1.027887e+000 4.550740e-001 -2.884545e+000 64 44 37
1.857237e-001 1.477513e-001 -3.055486e+000 55 88 30
-2.937535e-001 -2.292430e-001 -2.964724e+000 47 48 32
1.022398e+000 -4.036214e-001 -3.215229e+000 90 67 49
1.022398e+000 -4.036214e-001 -3.215229e+000 90 67 49
3.322041e-001 -9.226051e-001 -2.965600e+000 139 139 112
-9.748802e-001 7.645020e-001 -2.866386e+000 43 28 25
-9.219576e-001 6.380212e-001 -2.847231e+000 99 91 91
1.115078e+000 7.015021e-001 -3.180555e+000 216 231 228
-2.826491e-001 3.097031e-001 -3.066610e+000 217 112 139
-7.189590e-001 1.732250e-001 -2.928161e+000 211 93 132
-1.995836e-001 1.618389e-001 -3.132452e+000 160 195 220
-2.658258e-001 -2.987303e-001 -2.981755e+000 43 42 24
5.269702e-001 -9.665319e-001 -2.805751e+000 9 16 11
-1.381277e-001 1.079952e+000 -2.999384e+000 177 172 168
-1.009286e+000 8.012027e-001 -2.884408e+000 65 46 34
8.486109e-001 1.140772e+000 -3.151119e+000 82 84 62
-2.550818e-001 4.067208e-001 -3.052853e+000 179 219 201
-2.550818e-001 4.067208e-001 -3.052853e+000 179 219 201
-4.310369e-001 2.607131e-001 -3.023243e+000 213 109 142
-7.811558e-001 9.700996e-002 -2.916910e+000 77 173 189
-3.652656e-001 1.743407e-001 -3.068360e+000 121 184 206
-2.870045e-001 1.356883e-001 -3.106433e+000 189 167 189
-2.983657e-001 -2.058967e-001 -2.955472e+000 19 17 2
1.010747e+000 -6.215240e-001 -3.159791e+000 38 74 23
9.902717e-001 -6.512324e-001 -2.936299e+000 49 103 26
-7.399128e-001 -4.797939e-001 -3.047777e+000 160 47 81
-9.960996e-001 7.639294e-001 -2.883758e+000 98 74 72
-1.105654e+000 3.127099e-001 -2.988836e+000 43 27 26
-1.380119e-001 3.224922e-001 -3.116678e+000 223 91 127
-5.384969e-001 9.164016e-002 -3.017925e+000 214 102 140
-5.018943e-001 8.123636e-002 -3.037575e+000 124 175 201
-7.608350e-001 3.393911e-003 -2.948945e+000 57 164 200
-9.872679e-001 8.052608e-001 -2.863968e+000 42 24 22
-1.086766e+000 2.817325e-001 -2.989182e+000 86 80 77
5.268799e-001 -9.006652e-001 -2.910507e+000 12 19 12
6.390160e-002 -9.007075e-001 -3.034181e+000 51 31 9
4.342854e-001 -9.562007e-001 -2.898546e+000 20 79 48
9.663471e-001 -4.249096e-001 -3.237731e+000 74 32 8
2.043866e-001 4.547747e-002 -2.958602e+000 37 47 14
-4.295259e-001 -3.366346e-001 -3.026261e+000 85 175 114
1.084156e+000 -5.958280e-001 -3.090044e+000 125 188 91
9.733250e-001 -7.168730e-001 -3.027606e+000 14 18 12
1.220017e+000 8.661346e-001 -2.974025e+000 178 181 183
7.062224e-001 6.894250e-001 -3.141059e+000 167 203 137
1.023420e+000 7.827747e-001 -3.015359e+000 201 217 217
1.157175e+000 8.299848e-001 -3.003549e+000 162 173 174
4.527834e-001 5.276161e-001 -3.079191e+000 222 112 158
6.750371e-001 4.595329e-001 -3.094750e+000 58 91 27
6.969782e-001 5.185026e-001 -3.081426e+000 99 166 78
1.287305e+000 7.460298e-001 -3.049225e+000 179 199 198
6.771647e-001 4.331684e-001 -3.092592e+000 44 81 24
1.155799e+000 5.490193e-001 -3.160640e+000 201 221 219
1.164960e+000 5.280389e-001 -3.157688e+000 178 198 196
1.104578e+000 1.111127e-001 -3.109472e+000 90 152 69
1.182758e+000 2.053521e-001 -3.305184e+000 163 184 179
1.680561e-001 -5.458152e-001 -2.984093e+000 115 87 78
1.160765e+000 1.383041e-001 -3.327348e+000 54 70 70
-1.127778e-001 -1.083985e+000 -2.730168e+000 32 52 43
1.769757e-001 -1.173157e+000 -2.684932e+000 37 37 39
3.266971e-001 -1.005461e+000 -2.690082e+000 55 80 74
7.493389e-001 -6.740029e-001 -3.058914e+000 135 142 125
-1.290244e+000 3.802066e-001 -3.091971e+000 167 157 170
6.001571e-001 9.025049e-001 -3.068827e+000 53 75 87
