ply
format ascii 1.0
element face 0
property list uchar int vertex_indices
element vertex 1210
property float x
property float y
property float z
property uchar diffuse_red
property uchar diffuse_green
property uchar diffuse_blue
end_header
-0.164519 -0.380257 -3.60031 131 76 41
-0.178699 -0.271679 -3.61079 134 80 46
-0.177625 -0.207568 -3.5778 139 86 53
-0.183318 -0.200141 -3.59811 132 79 46
-0.196371 -0.154452 -3.6319 145 89 54
-0.191429 -0.119954 -3.59605 145 90 54
-0.190516 -0.108861 -3.58733 141 86 50
-0.191805 -0.0989905 -3.58828 140 86 51
-0.206522 -0.0224683 -3.61526 146 92 58
-0.210014 -0.0138193 -3.62589 161 112 82
-0.239933 -0.0198305 -3.75265 177 138 107
-0.232413 -0.00507309 -3.71489 188 154 124
-0.211679 0.0170145 -3.61907 193 171 153
-0.275008 0.013641 -3.88322 204 192 167
-0.304229 0.0927037 -3.96922 98 100 84
-0.290102 0.111126 -3.90243 109 113 93
-0.281668 0.136976 -3.85594 88 90 79
-0.287362 0.144403 -3.87625 89 91 82
-0.290854 0.153052 -3.88688 95 95 90
-0.330334 0.184081 -4.03681 191 164 172
-0.327218 0.196395 -4.01841 188 151 163
-0.332912 0.203822 -4.03872 195 143 160
-0.334201 0.213693 -4.03967 189 136 156
-0.333288 0.224785 -4.03094 188 135 158
-0.334577 0.234656 -4.0319 194 136 164
-0.338068 0.243305 -4.04253 190 137 168
-0.34156 0.251954 -4.05316 191 138 168
-0.345051 0.260603 -4.06379 190 146 177
-0.341936 0.272917 -4.04538 197 144 174
-0.341022 0.284009 -4.03666 199 149 180
-0.342312 0.29388 -4.03761 198 153 185
-0.341398 0.304972 -4.02889 196 149 181
-0.342687 0.314843 -4.02984 191 154 186
-0.343977 0.324714 -4.03079 183 157 186
-0.347468 0.333363 -4.04142 172 160 188
-0.350959 0.342012 -4.05205 172 165 192
-0.347844 0.354326 -4.03365 167 169 195
-0.351335 0.362975 -4.04428 166 173 198
-0.350422 0.374067 -4.03556 164 169 192
-0.351711 0.383938 -4.03651 156 171 194
-0.353 0.393809 -4.03746 158 176 198
-0.354289 0.403679 -4.03841 157 178 197
-0.353376 0.414772 -4.02969 153 182 198
-0.356868 0.423421 -4.04032 154 184 200
-0.358157 0.433291 -4.04127 154 183 199
-0.359446 0.443162 -4.04223 158 182 197
-0.360735 0.453033 -4.04318 155 182 195
-0.362024 0.462903 -4.04413 159 184 195
-0.363313 0.472774 -4.04508 159 191 199
-0.3624 0.483867 -4.03636 165 195 199
-0.365891 0.492516 -4.04699 164 199 198
-0.364978 0.503608 -4.03826 176 205 201
-0.36847 0.512257 -4.04889 185 210 201
-0.367556 0.523349 -4.04017 188 213 199
-0.368845 0.53322 -4.04112 190 217 200
-0.372337 0.541869 -4.05175 196 224 203
-0.371424 0.552961 -4.04303 196 227 204
-0.372713 0.562832 -4.04398 192 226 204
-0.374002 0.572703 -4.04493 193 223 202
-0.375291 0.582573 -4.04589 183 223 202
-0.37658 0.592444 -4.04684 188 225 205
-0.377869 0.602315 -4.04779 180 225 207
-0.376956 0.613407 -4.03907 174 220 206
-0.380447 0.622056 -4.0497 169 220 210
-0.379534 0.633149 -4.04097 161 215 210
-0.380823 0.643019 -4.04192 148 209 209
-0.382112 0.65289 -4.04288 137 205 211
-0.385604 0.661539 -4.05351 134 205 215
-0.384691 0.672631 -4.04478 127 201 217
-0.38598 0.682502 -4.04573 117 195 215
-0.387269 0.692373 -4.04669 115 194 216
-0.386356 0.703465 -4.03796 104 193 215
-0.389847 0.712114 -4.04859 104 193 215
-0.393338 0.720763 -4.05922 109 195 215
-0.394627 0.730634 -4.06018 106 191 209
-0.395917 0.740505 -4.06113 119 194 212
-0.399408 0.749154 -4.07176 128 200 217
-0.391888 0.763911 -4.034 193 229 237
-0.388772 0.776225 -4.0156 223 228 236
-0.398871 0.781209 -4.05526 216 238 246
-0.471653 0.994894 -4.262 227 232 233
-0.468538 1.00721 -4.2436 223 227 228
-0.458815 1.02319 -4.19616 230 232 232
-0.489002 1.21816 -4.23457 176 179 174
-0.495985 1.23546 -4.25583 180 184 179
-0.604002 1.86361 -4.42421 168 165 166
-0.607493 1.87226 -4.43484 165 162 163
-0.60658 1.88335 -4.42612 161 153 155
-0.617967 1.89821 -4.46674 158 151 154
-0.0502208 -1.68675 -3.75072 33 45 41
0.108025 -1.2708 -2.90927 18 21 18
0.047382 -1.1139 -3.09093 42 60 51
0.019988 -1.01265 -3.15948 76 83 74
-0.100065 -1.01573 -3.65876 115 71 16
-0.101354 -1.00586 -3.65971 122 76 22
-0.10044 -0.99477 -3.65098 125 79 25
-0.0863134 -0.976348 -3.58419 121 75 27
-0.0898048 -0.967699 -3.59482 121 75 25
-0.0910939 -0.957828 -3.59578 121 74 25
-0.0967876 -0.950401 -3.61609 123 74 28
-0.100279 -0.941751 -3.62672 125 74 31
-0.105973 -0.934324 -3.64702 121 70 28
-0.107262 -0.924453 -3.64798 125 72 32
-0.104146 -0.912139 -3.62957 125 72 32
-0.105435 -0.902269 -3.63053 125 72 33
-0.106725 -0.892398 -3.63148 124 71 32
-0.108014 -0.882527 -3.63243 125 72 34
-0.109303 -0.872657 -3.63338 125 72 33
-0.110592 -0.862786 -3.63434 125 72 33
-0.111881 -0.852915 -3.63529 126 72 33
-0.11317 -0.843045 -3.63624 126 73 33
-0.114459 -0.833174 -3.6372 125 72 33
-0.113546 -0.822081 -3.62847 126 73 34
-0.117037 -0.813432 -3.6391 125 73 33
-0.118326 -0.803562 -3.64005 126 73 34
-0.119616 -0.793691 -3.64101 126 73 35
-0.114298 -0.780155 -3.61293 129 76 39
-0.115587 -0.770285 -3.61388 129 77 40
-0.119078 -0.761636 -3.62451 127 75 37
-0.115963 -0.749322 -3.60611 128 77 39
-0.119454 -0.740673 -3.61674 127 75 39
-0.118917 -0.708617 -3.60024 127 75 39
-0.122247 -0.646949 -3.5866 123 71 34
-0.151359 -0.387868 -3.59201 136 82 47
-0.158342 -0.37057 -3.61328 130 76 40
-0.167741 -0.280512 -3.61217 143 89 55
-0.164626 -0.268198 -3.59377 137 83 49
-0.168869 -0.217623 -3.58886 140 87 54
-0.170158 -0.207752 -3.58981 143 90 59
-0.179719 -0.170713 -3.61297 135 80 45
-0.183049 -0.109045 -3.59934 135 82 46
-0.186541 -0.100396 -3.60997 135 81 44
-0.201258 -0.0238739 -3.63694 155 101 67
-0.19594 -0.0103382 -3.60886 146 95 66
-0.239073 -0.0236796 -3.79369 176 143 113
-0.220541 -0.00281367 -3.70754 189 154 123
-0.210819 0.0131655 -3.66011 197 171 142
-0.269744 0.0122353 -3.90491 202 191 167
-0.266629 0.0245494 -3.88651 187 177 151
-0.272698 0.0529398 -3.89904 177 176 158
-0.296762 0.0925198 -3.98123 95 98 82
-0.278231 0.113386 -3.89508 109 114 94
-0.268508 0.129365 -3.84764 97 101 89
-0.271999 0.138014 -3.85827 88 92 80
-0.281185 0.15409 -3.88921 94 96 91
-0.284676 0.162739 -3.89984 122 127 124
-0.312769 0.178913 -4.00916 194 199 194
-0.311856 0.190005 -4.00043 184 178 183
-0.319752 0.196211 -4.03042 195 170 178
-0.321041 0.206081 -4.03137 186 164 175
-0.317925 0.218395 -4.01297 173 154 171
-0.321417 0.227044 -4.0236 170 162 180
-0.324908 0.235693 -4.03423 176 162 184
-0.328399 0.244342 -4.04486 182 163 190
-0.327486 0.255435 -4.03613 189 167 197
-0.328775 0.265306 -4.03709 177 168 198
-0.330064 0.275176 -4.03804 173 161 189
-0.331354 0.285047 -4.03899 172 167 194
-0.334845 0.293696 -4.04962 173 171 197
-0.333932 0.304788 -4.0409 171 178 204
-0.335221 0.314659 -4.04185 164 176 202
-0.334308 0.325751 -4.03312 150 175 201
-0.337799 0.3344 -4.04375 145 175 200
-0.339088 0.344271 -4.04471 144 175 201
-0.340377 0.354142 -4.04566 131 177 203
-0.339464 0.365234 -4.03693 131 180 204
-0.342955 0.373883 -4.04757 126 178 204
-0.346447 0.382532 -4.0582 120 178 204
-0.343331 0.394846 -4.03979 120 180 203
-0.34462 0.404717 -4.04075 125 183 204
-0.34591 0.414588 -4.0417 131 186 206
-0.344996 0.42568 -4.03297 133 190 207
-0.348488 0.434329 -4.0436 132 192 210
-0.349777 0.4442 -4.04456 132 193 211
-0.348864 0.455292 -4.03583 130 191 206
-0.352355 0.463941 -4.04646 130 194 207
-0.353644 0.473812 -4.04741 138 195 207
-0.354933 0.483683 -4.04837 141 202 212
-0.358425 0.492332 -4.059 139 199 205
-0.357511 0.503424 -4.05027 147 207 208
-0.358801 0.513295 -4.05123 156 215 212
-0.36009 0.523165 -4.05218 157 211 205
-0.361379 0.533036 -4.05313 157 214 205
-0.360466 0.544128 -4.04441 173 222 210
-0.363957 0.552777 -4.05504 167 220 208
-0.363044 0.56387 -4.04631 162 216 201
-0.364333 0.573741 -4.04726 156 214 200
-0.36342 0.584833 -4.03854 145 208 197
-0.366911 0.593482 -4.04917 147 211 200
-0.3682 0.603353 -4.05012 146 212 204
-0.369489 0.613223 -4.05107 137 207 204
-0.370778 0.623094 -4.05203 141 209 209
-0.372068 0.632965 -4.05298 131 207 213
-0.373357 0.642835 -4.05393 128 205 213
-0.374646 0.652706 -4.05489 114 198 212
-0.375935 0.662577 -4.05584 108 196 215
-0.377224 0.672447 -4.05679 109 196 218
-0.376311 0.68354 -4.04807 99 193 218
-0.375397 0.694632 -4.03934 97 192 216
-0.381843 0.743986 -4.0441 104 187 205
-0.387537 0.751413 -4.06441 125 201 218
-0.382219 0.764949 -4.03633 194 226 236
-0.440284 0.902111 -4.2161 229 237 238
-0.44818 0.908317 -4.24608 230 239 239
-0.444151 0.931723 -4.21895 234 237 239
-0.44544 0.941594 -4.21991 232 236 238
-0.444527 0.952686 -4.21118 230 235 237
-0.448018 0.961335 -4.22181 231 236 237
-0.449308 0.971206 -4.22276 231 236 237
-0.452799 0.979855 -4.2334 229 235 236
-0.449683 0.992169 -4.21499 232 236 237
-0.44877 1.00326 -4.20627 226 229 229
-0.454464 1.01069 -4.22658 228 231 231
-0.451348 1.023 -4.20817 226 227 226
-0.102684 1.3011 -2.63833 54 44 38
-0.475841 1.21055 -4.22627 176 180 175
-0.485027 1.22662 -4.25721 182 186 181
-0.520317 1.33408 -4.35574 180 182 176
-0.517201 1.34639 -4.33734 175 176 171
-0.596911 1.88439 -4.42845 159 151 152
-0.610501 1.89802 -4.47874 161 156 158
0.122099 -1.26732 -2.89224 16 20 17
-0.0903956 -1.0147 -3.66109 125 81 20
-0.0894824 -1.0036 -3.65236 132 87 26
-0.0832514 -0.978975 -3.61556 135 91 31
-0.081425 -0.95679 -3.59811 129 80 28
-0.0849164 -0.948141 -3.60874 130 79 32
-0.0884078 -0.939492 -3.61937 129 78 32
-0.0935642 -0.900009 -3.62318 128 75 35
-0.0992579 -0.892582 -3.64349 127 74 34
-0.0961424 -0.880268 -3.62509 129 75 35
-0.0974315 -0.870397 -3.62604 130 75 35
-0.0987206 -0.860526 -3.62699 130 76 36
-0.10001 -0.850656 -3.62794 130 76 35
-0.0946919 -0.83712 -3.59986 129 76 36
-0.100386 -0.829693 -3.62017 130 76 36
-0.101675 -0.819822 -3.62112 130 76 35
-0.105166 -0.811173 -3.63175 129 76 35
-0.112578 -0.645912 -3.58893 127 76 36
-0.120313 -0.586688 -3.59465 123 71 31
-0.14314 -0.429978 -3.61957 137 81 47
-0.14776 -0.35844 -3.60688 129 75 40
-0.152003 -0.307865 -3.60197 132 78 44
-0.157696 -0.300437 -3.62228 131 77 43
-0.156246 -0.25729 -3.59705 137 83 49
-0.161402 -0.217807 -3.60086 137 82 49
-0.172628 -0.149934 -3.61721 137 83 49
-0.179611 -0.132636 -3.63847 147 93 59
-0.1809 -0.122765 -3.63942 145 90 55
-0.182189 -0.112894 -3.64038 143 89 53
-0.181276 -0.101802 -3.63165 140 86 49
-0.182404 -0.0389125 -3.60834 150 92 55
-0.191589 -0.0228362 -3.63927 157 103 70
-0.188474 -0.0105221 -3.62087 154 101 71
-0.229404 -0.0226418 -3.79602 184 150 120
-0.20867 -0.000554243 -3.7002 191 157 124
-0.194543 0.0178683 -3.63341 195 172 150
-0.260827 0.0551992 -3.8917 164 162 143
-0.282689 0.0960009 -3.9642 104 106 89
-0.258839 0.130403 -3.84998 102 109 96
-0.260128 0.140273 -3.85093 92 98 88
-0.271516 0.155128 -3.89154 97 99 93
-0.279412 0.161334 -3.92153 130 134 129
-0.309707 0.176285 -4.04052 196 195 191
-0.311372 0.207119 -4.0337 177 176 185
-0.308256 0.219433 -4.0153 167 175 191
-0.316152 0.225639 -4.04528 155 163 176
-0.317441 0.23551 -4.04624 154 174 191
-0.316528 0.246602 -4.03751 153 174 200
-0.32002 0.255251 -4.04814 150 174 198
-0.321309 0.265122 -4.04909 151 180 205
-0.320396 0.276214 -4.04037 146 181 206
-0.323887 0.284863 -4.051 143 186 209
-0.325176 0.294734 -4.05195 144 186 208
-0.326465 0.304604 -4.05291 137 184 207
-0.325552 0.315697 -4.04418 129 181 205
-0.326841 0.325567 -4.04513 119 179 203
-0.325928 0.33666 -4.03641 110 179 204
-0.329419 0.345309 -4.04704 109 185 210
-0.332911 0.353958 -4.05767 103 185 213
-0.331997 0.36505 -4.04894 101 186 212
-0.333287 0.374921 -4.0499 99 186 212
-0.334576 0.384792 -4.05085 102 186 213
-0.335865 0.394662 -4.0518 101 187 213
-0.334952 0.405755 -4.04308 103 187 211
-0.336241 0.415625 -4.04403 111 191 213
-0.33753 0.425496 -4.04498 114 193 214
-0.341021 0.434145 -4.05561 112 192 214
-0.340108 0.445238 -4.04689 112 193 215
-0.341397 0.455108 -4.04784 112 194 215
-0.344888 0.463757 -4.05847 113 195 214
-0.343975 0.47485 -4.04975 113 194 211
-0.347467 0.483499 -4.06038 122 202 216
-0.348756 0.493369 -4.06133 119 199 211
-0.350045 0.50324 -4.06228 121 202 211
-0.349132 0.514332 -4.05356 124 204 213
-0.352623 0.522981 -4.06419 125 202 209
-0.35171 0.534074 -4.05546 120 197 204
-0.352999 0.543944 -4.05641 126 202 206
-0.354288 0.553815 -4.05737 127 200 205
-0.355577 0.563686 -4.05832 123 198 202
-0.354664 0.574778 -4.0496 122 196 199
-0.355953 0.584649 -4.05055 116 194 199
-0.359444 0.593298 -4.06118 109 192 202
-0.358531 0.60439 -4.05245 104 190 202
-0.362023 0.613039 -4.06308 105 191 204
-0.363312 0.62291 -4.06404 103 191 208
-0.364601 0.632781 -4.06499 102 194 212
-0.363688 0.643873 -4.05626 101 194 212
-0.367179 0.652522 -4.06689 96 190 211
-0.364064 0.664836 -4.04849 96 193 217
-0.367555 0.673485 -4.05912 93 191 217
-0.367931 0.694448 -4.05135 89 192 217
-0.36922 0.704319 -4.0523 88 192 216
-0.370509 0.71419 -4.05326 90 195 216
-0.371798 0.72406 -4.05421 94 195 214
-0.370885 0.735153 -4.04548 104 193 211
-0.372174 0.745023 -4.04644 107 191 208
-0.375666 0.753672 -4.05707 121 196 212
-0.385764 0.758656 -4.09673 140 209 224
-0.395862 0.76364 -4.13639 167 220 231
-0.377331 0.784506 -4.05025 215 232 240
-0.425834 0.884629 -4.20684 231 241 236
-0.427124 0.8945 -4.2078 230 239 235
-0.428413 0.904371 -4.20875 230 237 235
-0.436309 0.910576 -4.23874 231 238 237
-0.437598 0.920447 -4.23969 234 238 239
-0.434482 0.932761 -4.22129 236 238 238
-0.435771 0.942632 -4.22224 231 235 235
-0.441465 0.950059 -4.24255 229 233 232
-0.436147 0.963595 -4.21447 228 232 232
-0.439639 0.972244 -4.2251 227 230 230
-0.440928 0.982115 -4.22605 223 226 226
-0.457633 0.983433 -4.29475 212 214 211
-0.445708 1.00063 -4.23763 220 223 222
-0.4492 1.00928 -4.24826 215 217 216
-0.502 1.28698 -4.34363 186 188 183
-0.595138 1.89163 -4.46077 166 162 163
-0.594225 1.90273 -4.45204 159 149 153
-0.604323 1.90771 -4.49171 151 146 149
0.13064 -1.20339 -2.87126 17 19 21
-0.00633238 -1.13118 -3.40719 61 71 69
-0.0329746 -1.07185 -3.49128 75 62 27
-0.0776112 -1.00134 -3.64502 134 90 24
-0.0833049 -0.993916 -3.66533 145 101 35
-0.0695537 -0.954531 -3.59076 134 84 31
-0.0859362 -0.847175 -3.61092 132 79 37
-0.0894276 -0.838526 -3.62155 133 79 37
-0.134599 -0.366051 -3.59858 134 82 48
-0.140293 -0.358624 -3.61889 131 78 44
-0.141582 -0.348753 -3.61984 128 74 41
-0.145449 -0.319141 -3.6227 139 85 52
-0.146738 -0.30927 -3.62365 136 82 49
-0.148028 -0.2994 -3.62461 135 82 49
-0.151519 -0.290751 -3.63524 142 90 57
-0.143462 -0.243938 -3.58098 136 89 58
-0.151358 -0.237732 -3.61097 134 79 47
-0.152647 -0.227861 -3.61192 133 79 47
-0.156138 -0.219212 -3.62255 132 78 47
-0.157427 -0.209342 -3.6235 134 80 50
-0.158716 -0.199471 -3.62446 134 80 50
-0.163497 -0.180951 -3.63604 146 91 60
-0.158179 -0.167416 -3.60796 136 84 54
-0.16167 -0.158767 -3.61859 136 85 54
-0.162959 -0.148896 -3.61954 137 85 54
-0.166451 -0.140247 -3.63017 137 85 52
-0.178805 -0.00948439 -3.6232 158 104 74
-0.215331 -0.0191607 -3.779 180 144 112
-0.223227 -0.0129551 -3.80898 191 160 129
-0.193683 0.0140193 -3.67445 203 175 145
-0.262008 0.103147 -3.91815 96 96 77
-0.254864 0.138868 -3.87262 96 101 88
-0.264049 0.154944 -3.90355 93 97 89
-0.267541 0.163593 -3.91418 109 116 111
-0.303905 0.206935 -4.04571 172 187 193
-0.302992 0.218028 -4.03698 145 175 185
-0.307773 0.236547 -4.04857 136 177 194
-0.309062 0.246418 -4.04952 128 179 200
-0.310351 0.256289 -4.05047 125 183 206
-0.31164 0.266159 -4.05143 125 186 210
-0.312929 0.27603 -4.05238 119 188 214
-0.312016 0.287122 -4.04365 117 193 218
-0.315507 0.295771 -4.05428 114 193 216
-0.316796 0.305642 -4.05524 112 190 214
-0.318085 0.315513 -4.05619 106 190 214
-0.317172 0.326605 -4.04746 99 188 213
-0.320664 0.335254 -4.05809 94 187 213
-0.321953 0.345125 -4.05905 88 190 218
-0.321039 0.356217 -4.05032 88 191 219
-0.322329 0.366088 -4.05128 83 193 222
-0.323618 0.375959 -4.05223 85 192 222
-0.324907 0.385829 -4.05318 82 188 217
-0.326196 0.3957 -4.05413 87 189 218
-0.327485 0.405571 -4.05509 89 190 217
-0.326572 0.416663 -4.04636 94 192 218
-0.327861 0.426534 -4.04731 95 192 217
-0.331352 0.435183 -4.05794 94 193 219
-0.332641 0.445054 -4.0589 95 192 218
-0.33393 0.454924 -4.05985 95 193 219
-0.33522 0.464795 -4.0608 97 194 220
-0.334306 0.475887 -4.05208 96 192 217
-0.337798 0.484536 -4.06271 105 198 220
-0.336885 0.495629 -4.05398 96 192 214
-0.335971 0.506721 -4.04526 97 192 213
-0.339463 0.51537 -4.05589 92 189 208
-0.340752 0.525241 -4.05684 94 190 208
-0.342041 0.535112 -4.05779 91 188 209
-0.345532 0.543761 -4.06842 96 188 210
-0.344619 0.554853 -4.0597 92 185 206
-0.345908 0.564724 -4.06065 96 187 207
-0.347197 0.574594 -4.0616 102 189 207
-0.348486 0.584465 -4.06256 92 184 206
-0.349776 0.594336 -4.06351 93 187 210
-0.351065 0.604206 -4.06446 91 187 211
-0.352354 0.614077 -4.06542 89 187 212
-0.353643 0.623948 -4.06637 84 185 212
-0.356221 0.643689 -4.06827 87 188 212
-0.355308 0.654782 -4.05955 85 188 215
-0.356597 0.664652 -4.0605 88 192 219
-0.355684 0.675745 -4.05178 93 194 221
-0.356973 0.685615 -4.05273 98 197 223
-0.358262 0.695486 -4.05368 97 198 222
-0.359551 0.705357 -4.05463 95 199 222
-0.358638 0.716449 -4.04591 102 201 221
-0.362129 0.725098 -4.05654 99 199 218
-0.363418 0.734969 -4.05749 107 201 219
-0.364707 0.74484 -4.05844 111 194 209
-0.365997 0.75471 -4.0594 127 195 210
-0.376095 0.759694 -4.09906 141 210 224
-0.378673 0.779436 -4.10097 190 229 237
-0.41579 0.864704 -4.21695 217 230 224
-0.419281 0.873353 -4.22758 220 232 225
-0.42057 0.883224 -4.22853 222 235 226
-0.426264 0.890651 -4.24884 210 223 215
-0.427553 0.900522 -4.24979 210 221 215
-0.428842 0.910392 -4.25074 215 223 219
-0.427929 0.921485 -4.24202 217 220 218
-0.427016 0.932577 -4.23329 214 216 213
-0.432709 0.940004 -4.2536 202 203 201
-0.431796 0.951097 -4.24488 200 202 199
-0.43749 0.958524 -4.26519 195 197 194
-0.446675 0.9746 -4.29612 202 204 200
-0.388931 1.16542 -3.9717 164 164 157
-0.39022 1.17529 -3.97265 161 161 155
-0.491042 1.27815 -4.34501 184 187 182
-0.569248 1.7323 -4.46721 174 175 170
-0.593365 1.89888 -4.49308 161 159 160
-0.594654 1.90875 -4.49404 152 148 150
0.0362075 -1.59885 -3.48183 30 41 36
-0.00273308 -1.10175 -3.42205 56 67 52
-0.0245948 -1.06095 -3.49456 81 66 15
-0.0683182 -0.979343 -3.63958 141 99 31
-0.0611739 -0.943622 -3.59405 136 86 27
-0.0775564 -0.836266 -3.6142 133 81 36
-0.0788455 -0.826396 -3.61516 133 81 36
-0.0801346 -0.816525 -3.61611 133 81 37
-0.123051 -0.469829 -3.63978 130 81 46
-0.12434 -0.459958 -3.64073 131 80 45
-0.1216 -0.426681 -3.61455 134 81 47
-0.122889 -0.41681 -3.61551 131 81 48
-0.128583 -0.409383 -3.63581 139 89 55
-0.129872 -0.399512 -3.63677 137 85 52
-0.128959 -0.38842 -3.62804 135 84 50
-0.125844 -0.376106 -3.60964 134 85 53
-0.129335 -0.367457 -3.62027 131 82 50
-0.130624 -0.357586 -3.62122 134 83 52
-0.136318 -0.350159 -3.64153 137 86 56
-0.135405 -0.339066 -3.63281 136 85 55
-0.136694 -0.329196 -3.63376 136 84 55
-0.133578 -0.316882 -3.61536 136 86 56
-0.134867 -0.307011 -3.61631 134 85 55
-0.140561 -0.299584 -3.63662 141 92 62
-0.14185 -0.289713 -3.63757 139 90 59
-0.140937 -0.278621 -3.62884 141 91 60
-0.144804 -0.249008 -3.6317 147 97 68
-0.147382 -0.229267 -3.63361 139 89 61
-0.148671 -0.219396 -3.63456 137 88 60
-0.146845 -0.197212 -3.61711 141 92 65
-0.150336 -0.188563 -3.62774 140 89 62
-0.151626 -0.178692 -3.62869 144 96 69
-0.150712 -0.167599 -3.61997 143 96 70
-0.153291 -0.147858 -3.62187 136 91 64
-0.155869 -0.128117 -3.62378 138 95 66
-0.15936 -0.119468 -3.63441 142 97 68
-0.158447 -0.108375 -3.62568 143 97 65
-0.161025 -0.0886339 -3.62759 147 97 63
-0.161401 -0.0676708 -3.61982 145 91 59
-0.169136 -0.00844665 -3.62553 159 106 76
-0.207864 -0.0193447 -3.79101 174 138 107
-0.209153 -0.00947397 -3.79196 191 159 126
-0.181812 0.0162787 -3.6671 205 178 150
-0.242026 0.0252192 -3.91286 204 194 168
-0.251588 0.0622587 -3.93602 102 101 83
-0.252877 0.0721293 -3.93697 95 95 76
-0.239501 0.132478 -3.85464 96 103 91
-0.245195 0.139905 -3.87495 93 100 88
-0.25438 0.155982 -3.90588 91 102 92
-0.255669 0.165852 -3.90684 101 113 108
-0.26045 0.184372 -3.91842 189 201 208
-0.294612 0.228936 -4.04027 118 182 196
-0.301595 0.246234 -4.06153 120 192 214
-0.300682 0.257326 -4.0528 110 188 214
-0.301971 0.267197 -4.05376 101 188 215
-0.30326 0.277068 -4.05471 101 191 219
-0.304549 0.286938 -4.05566 100 193 221
-0.303636 0.298031 -4.04694 96 192 219
-0.304925 0.307902 -4.04789 92 191 219
-0.308416 0.316551 -4.05852 91 192 219
-0.307503 0.327643 -4.0498 87 192 221
-0.314325 0.39796 -4.04679 79 187 216
-0.320394 0.42635 -4.05932 85 189 217
-0.321683 0.436221 -4.06028 83 190 218
-0.33495 0.555891 -4.06203 76 183 216
-0.336239 0.565761 -4.06298 78 183 215
-0.339731 0.57441 -4.07361 84 186 218
-0.336615 0.586724 -4.05521 85 188 218
-0.337904 0.596595 -4.05616 87 189 219
-0.341396 0.605244 -4.06679 85 187 218
-0.344887 0.613893 -4.07742 84 187 217
-0.341772 0.626207 -4.05902 84 188 218
-0.343061 0.636078 -4.05997 84 189 218
-0.346552 0.644727 -4.0706 83 189 218
-0.347841 0.654598 -4.07156 85 191 219
-0.344726 0.666912 -4.05315 99 198 223
-0.348217 0.675561 -4.06378 95 197 223
-0.349506 0.685431 -4.06474 97 200 224
-0.350795 0.695302 -4.06569 99 202 223
-0.356489 0.702729 -4.086 102 202 221
-0.353374 0.715043 -4.0676 104 204 222
-0.356865 0.723692 -4.07823 107 205 222
-0.355952 0.734785 -4.0695 116 206 220
-0.357241 0.744656 -4.07045 117 195 209
-0.371744 0.747196 -4.12947 149 208 220
-0.366426 0.760732 -4.10139 142 206 219
-0.37212 0.768159 -4.1217 175 223 231
-0.369004 0.780473 -4.1033 196 229 236
-0.402629 0.857093 -4.20865 221 233 227
-0.406121 0.865742 -4.21928 214 224 217
-0.420624 0.868282 -4.2783 208 222 213
-0.430722 0.873266 -4.31796 203 217 208
-0.421 0.889245 -4.27053 191 203 192
-0.424491 0.897894 -4.28116 191 201 192
-0.423578 0.908987 -4.27243 191 199 193
-0.398439 0.933518 -4.15725 202 204 198
-0.412942 0.936058 -4.21627 196 199 192
-0.418636 0.943486 -4.23658 188 190 184
-0.419925 0.953356 -4.23753 196 198 194
-0.419012 0.964449 -4.22881 183 184 180
-0.435717 0.965768 -4.2975 196 198 193
-0.463916 1.23594 -4.29419 183 187 181
-0.465205 1.24581 -4.29515 184 188 182
-0.477882 1.27054 -4.33671 179 181 176
-0.582783 1.91101 -4.48669 155 150 153
0.00510942 -1.12289 -3.44184 74 90 76
-0.00869482 -1.03528 -3.46009 145 129 53
-0.0055793 -1.02297 -3.44169 154 137 62
-0.0582734 -0.999268 -3.64968 142 102 23
-0.0632684 -0.906767 -3.62922 134 82 36
-0.0645575 -0.896896 -3.63017 133 82 36
-0.0697139 -0.857413 -3.63398 133 81 34
-0.0665983 -0.845099 -3.61558 132 81 33
-0.0678875 -0.835229 -3.61653 130 80 32
-0.0691766 -0.825358 -3.61749 132 82 36
-0.0748703 -0.817931 -3.6378 133 83 34
-0.0761594 -0.80806 -3.63875 132 81 33
-0.0730439 -0.795746 -3.62035 130 79 34
-0.0721307 -0.784653 -3.61162 131 80 33
-0.0734198 -0.774783 -3.61257 131 80 33
-0.0813158 -0.768577 -3.64256 137 87 37
-0.0826049 -0.758706 -3.64351 132 81 34
-0.083894 -0.748836 -3.64446 129 78 32
-0.0785762 -0.7353 -3.61638 127 77 31
-0.0894263 -0.68839 -3.6405 127 76 29
-0.0885131 -0.677297 -3.63178 129 79 33
-0.0853976 -0.664983 -3.61338 130 80 33
-0.088889 -0.656334 -3.62401 130 79 33
-0.0879758 -0.645242 -3.61528 129 79 31
-0.0936695 -0.637815 -3.63559 132 79 31
-0.0962477 -0.618073 -3.63749 130 77 32
-0.0931322 -0.605759 -3.61909 129 77 31
-0.092219 -0.594667 -3.61037 132 80 33
-0.100115 -0.588461 -3.64035 136 83 35
-0.0992018 -0.577369 -3.63163 134 82 35
-0.0960863 -0.565055 -3.61322 130 78 31
-0.0995777 -0.556406 -3.62386 129 78 32
-0.114457 -0.532902 -3.6751 133 86 48
-0.106399 -0.486089 -3.62085 125 80 49
-0.108977 -0.466348 -3.62275 125 78 47
-0.113758 -0.447828 -3.63433 128 81 47
-0.112845 -0.436736 -3.62561 129 84 51
-0.114134 -0.426865 -3.62656 127 82 52
-0.113221 -0.415773 -3.61784 129 86 58
-0.116712 -0.407124 -3.62847 136 93 64
-0.118001 -0.397253 -3.62942 133 89 60
-0.117088 -0.38616 -3.6207 129 85 57
-0.120579 -0.377511 -3.63133 127 83 54
-0.117464 -0.365197 -3.61292 134 92 64
-0.120955 -0.356548 -3.62355 128 84 57
-0.124447 -0.347899 -3.63418 135 90 64
-0.123533 -0.336807 -3.62546 127 85 58
-0.124822 -0.326936 -3.62641 129 86 60
-0.123909 -0.315844 -3.61769 137 94 68
-0.129603 -0.308417 -3.63799 148 107 81
-0.12869 -0.297324 -3.62927 136 96 70
-0.129979 -0.287453 -3.63022 136 94 67
-0.131268 -0.277583 -3.63118 133 93 67
-0.130355 -0.26649 -3.62245 133 91 64
-0.131644 -0.25662 -3.6234 133 91 65
-0.132933 -0.246749 -3.62436 131 87 61
-0.134222 -0.236878 -3.62531 138 94 70
-0.135511 -0.227008 -3.62626 138 95 70
-0.1368 -0.217137 -3.62721 139 100 76
-0.138089 -0.207266 -3.62817 150 110 87
-0.137176 -0.196174 -3.61944 138 95 72
-0.140668 -0.187525 -3.63007 138 98 76
-0.141957 -0.177654 -3.63102 135 97 75
-0.141043 -0.166562 -3.6223 137 98 76
-0.142333 -0.156691 -3.62325 137 98 76
-0.144911 -0.13695 -3.62516 150 114 92
-0.1462 -0.127079 -3.62611 149 114 93
-0.147489 -0.117208 -3.62706 132 97 73
-0.148778 -0.107338 -3.62802 153 116 90
-0.152269 -0.0986886 -3.63865 154 110 81
-0.151356 -0.0875962 -3.62992 137 93 62
-0.14953 -0.0654114 -3.61247 140 87 57
-0.163871 -0.00985229 -3.64722 168 117 86
-0.200398 -0.0195286 -3.80302 174 139 108
-0.170854 0.00744572 -3.66848 190 156 127
-0.174346 0.0160947 -3.67911 210 183 154
-0.228866 0.017608 -3.90456 205 190 160
-0.229832 0.133516 -3.85697 87 95 81
-0.233324 0.142165 -3.8676 101 111 99
-0.242509 0.158241 -3.89854 90 108 97
-0.290637 0.237401 -4.06291 80 160 179
-0.293215 0.257142 -4.06481 103 192 220
-0.302991 0.368163 -4.05594 79 187 222
-0.302077 0.379256 -4.04721 82 186 220
-0.305569 0.387905 -4.05784 78 187 219
-0.306858 0.397776 -4.0588 79 189 218
-0.310349 0.406425 -4.06943 78 187 215
-0.309436 0.417517 -4.0607 83 190 217
-0.308523 0.428609 -4.05198 90 192 218
-0.314217 0.436037 -4.07228 81 189 216
-0.311101 0.448351 -4.05388 83 189 216
-0.314593 0.457 -4.06451 80 188 216
-0.313679 0.468092 -4.05579 85 190 218
-0.317171 0.476741 -4.06642 79 187 217
-0.31846 0.486612 -4.06737 79 186 219
-0.327484 0.555707 -4.07404 77 187 220
-0.32657 0.566799 -4.06531 75 185 219
-0.325657 0.577891 -4.05659 81 187 218
-0.329149 0.58654 -4.06722 81 188 220
-0.328235 0.597633 -4.05849 88 192 221
-0.331727 0.606282 -4.06913 84 190 218
-0.337421 0.613709 -4.08943 90 193 219
-0.336507 0.624802 -4.08071 90 194 220
-0.335594 0.635894 -4.07198 93 198 223
-0.336883 0.645765 -4.07294 93 197 221
-0.338172 0.655635 -4.07389 94 197 219
-0.343866 0.663063 -4.0942 104 199 220
-0.342953 0.674155 -4.08547 103 198 219
-0.346444 0.682804 -4.0961 108 198 218
-0.347733 0.692675 -4.09705 113 200 218
-0.349022 0.702545 -4.09801 119 200 215
-0.343705 0.716081 -4.06993 119 203 219
-0.344994 0.725952 -4.07088 122 203 216
-0.348485 0.734601 -4.08151 130 206 217
-0.354179 0.742028 -4.10182 127 200 212
-0.351063 0.754342 -4.08342 144 203 215
-0.352352 0.764213 -4.08437 165 212 223
-0.360249 0.770419 -4.11435 174 219 227
-0.359335 0.781511 -4.10563 203 229 236
-0.39296 0.85813 -4.21098 219 230 222
-0.396452 0.866779 -4.22161 211 222 211
-0.40655 0.871763 -4.26127 204 219 206
-0.402521 0.89517 -4.23415 190 200 186
-0.40381 0.905041 -4.2351 185 193 180
-0.4051 0.914911 -4.23605 176 181 170
-0.406389 0.924782 -4.237 187 189 181
-0.405475 0.935874 -4.22828 186 188 180
-0.406765 0.945745 -4.22923 182 184 176
-0.412458 0.953172 -4.24954 182 183 175
-0.41595 0.961821 -4.26017 192 192 185
-0.417239 0.971692 -4.26112 187 187 180
-0.42073 0.980341 -4.27175 187 185 179
-0.337095 1.15377 -3.84769 171 173 165
-0.421911 1.17023 -4.19213 186 189 183
-0.440281 1.20238 -4.254 185 189 182
-0.450756 1.22833 -4.28589 182 185 180
-0.470092 1.37639 -4.30018 180 182 177
-0.477988 1.3826 -4.33017 181 182 177
-0.563929 1.89597 -4.45808 166 162 163
-0.565218 1.90584 -4.45904 160 152 154
-0.573114 1.91205 -4.48902 156 152 154
0.113935 -1.19388 -3.06498 19 22 22
0.0182697 -1.13051 -3.43354 54 72 60
0.019183 -1.11941 -3.42481 57 78 63
0.0156915 -1.11076 -3.43544 58 73 55
0.0188071 -1.09845 -3.41704 63 76 59
-0.00434374 -1.04778 -3.4905 163 147 51
0.00408962 -1.02193 -3.44402 159 143 58
-0.00600873 -1.01694 -3.48368 190 186 76
-0.0532235 -0.926692 -3.63932 138 89 32
-0.0545127 -0.916821 -3.64028 134 83 30
-0.0513971 -0.904507 -3.62187 133 83 30
-0.0504839 -0.893415 -3.61315 132 84 30
-0.05838 -0.887209 -3.64314 138 89 34
-0.0574667 -0.876117 -3.63441 134 86 31
-0.0587559 -0.866246 -3.63536 130 81 29
-0.0578426 -0.855154 -3.62664 127 79 27
-0.0591317 -0.845283 -3.62759 127 79 28
-0.0604208 -0.835412 -3.62854 128 80 29
-0.0639123 -0.826763 -3.63917 134 87 31
-0.0652014 -0.816893 -3.64013 130 82 28
-0.0664905 -0.807022 -3.64108 129 81 27
-0.0655773 -0.79593 -3.63235 128 80 27
-0.0624617 -0.783616 -3.61395 132 83 30
-0.0650399 -0.763874 -3.61586 129 80 29
-0.0720228 -0.746576 -3.63712 128 81 26
-0.0689072 -0.734262 -3.61872 125 78 25
-0.0723987 -0.725613 -3.62935 125 77 24
-0.0714855 -0.714521 -3.62062 125 77 23
-0.0749769 -0.705872 -3.63125 138 90 32
-0.076266 -0.696001 -3.6322 132 84 28
-0.0775551 -0.68613 -3.63316 128 80 25
-0.0766419 -0.675038 -3.62443 125 77 24
-0.077931 -0.665167 -3.62538 126 78 27
-0.0770178 -0.654075 -3.61666 130 82 26
-0.0805092 -0.645426 -3.62729 127 78 24
-0.0817983 -0.635555 -3.62824 134 85 28
-0.0830874 -0.625684 -3.6292 130 82 24
-0.0843765 -0.615814 -3.63015 129 80 25
-0.0834633 -0.604721 -3.62142 130 80 26
-0.0847524 -0.594851 -3.62238 131 81 27
-0.0882438 -0.586202 -3.63301 136 86 30
-0.0895329 -0.576331 -3.63396 133 84 27
-0.0886197 -0.565239 -3.62523 132 83 28
-0.0877065 -0.554146 -3.61651 135 87 31
-0.0934002 -0.546719 -3.63682 137 89 38
-0.0950652 -0.515885 -3.63 126 83 44
-0.0963543 -0.506014 -3.63095 125 83 51
-0.0888341 -0.491257 -3.59319 130 89 57
-0.0945279 -0.48383 -3.6135 125 86 62
-0.0980193 -0.475181 -3.62413 117 78 56
-0.100597 -0.455439 -3.62604 124 88 62
-0.101887 -0.445569 -3.62699 123 84 57
-0.103176 -0.435698 -3.62794 126 90 64
-0.104465 -0.425827 -3.62889 135 99 75
-0.105754 -0.415956 -3.62985 133 97 74
-0.107043 -0.406086 -3.6308 126 89 66
-0.10613 -0.394993 -3.62207 130 97 75
-0.109621 -0.386344 -3.6327 142 107 85
-0.108708 -0.375252 -3.62398 131 97 74
-0.112199 -0.366603 -3.63461 136 101 78
-0.111286 -0.355511 -3.62588 139 103 81
-0.112575 -0.34564 -3.62684 140 104 81
-0.113864 -0.335769 -3.62779 138 103 81
-0.115154 -0.325899 -3.62874 155 123 102
-0.116443 -0.316028 -3.6297 152 121 101
-0.117732 -0.306157 -3.63065 147 115 94
-0.116819 -0.295065 -3.62192 156 127 108
-0.12031 -0.286416 -3.63255 156 125 104
-0.119397 -0.275323 -3.62383 155 125 105
-0.122888 -0.266674 -3.63446 169 140 120
-0.121975 -0.255582 -3.62573 168 140 120
-0.123264 -0.245711 -3.62669 172 144 126
-0.122351 -0.234619 -3.61796 175 149 133
-0.12364 -0.224748 -3.61891 177 152 136
-0.127131 -0.216099 -3.62955 188 161 144
-0.12842 -0.206228 -3.6305 187 161 144
-0.127507 -0.195136 -3.62177 190 163 146
-0.128796 -0.185265 -3.62273 206 182 167
-0.130085 -0.175395 -3.62368 204 180 164
-0.131375 -0.165524 -3.62463 194 169 153
-0.132664 -0.155653 -3.62558 199 173 157
-0.133953 -0.145783 -3.62654 199 175 159
-0.13304 -0.13469 -3.61781 187 163 148
-0.136531 -0.126041 -3.62844 205 180 164
-0.13782 -0.116171 -3.62939 215 190 171
-0.139109 -0.1063 -3.63035 204 175 153
-0.138196 -0.0952074 -3.62162 211 178 154
-0.14389 -0.0877801 -3.64193 138 98 69
-0.145179 -0.0779094 -3.64288 135 90 58
-0.196422 -0.0110636 -3.82566 194 164 134
-0.223978 0.0371654 -3.91847 205 200 177
-0.23284 0.159279 -3.90087 83 109 94
-0.238534 0.166706 -3.92118 89 113 101
-0.280055 0.249531 -4.05651 92 187 213
-0.281344 0.259402 -4.05747 96 193 222
-0.293322 0.369201 -4.05827 84 189 221
-0.294611 0.379072 -4.05922 86 190 221
-0.298102 0.387721 -4.06985 82 191 220
-0.301594 0.39637 -4.08048 82 191 218
-0.302883 0.406241 -4.08144 84 190 216
-0.306374 0.41489 -4.09207 91 194 218
-0.301056 0.428425 -4.06399 90 195 218
-0.302345 0.438296 -4.06494 88 193 217
-0.303635 0.448167 -4.06589 90 193 218
-0.307126 0.456816 -4.07652 89 191 216
-0.310617 0.465465 -4.08715 91 192 218
-0.307502 0.477779 -4.06875 94 192 219
-0.308791 0.48765 -4.0697 89 189 217
-0.312282 0.496299 -4.08033 81 186 216
-0.311369 0.507391 -4.07161 82 188 218
-0.314861 0.51604 -4.08224 81 189 219
-0.318352 0.524689 -4.09287 83 189 217
-0.317439 0.535781 -4.08414 79 188 217
-0.32093 0.54443 -4.09477 86 191 219
-0.315612 0.557966 -4.06669 85 192 218
-0.316902 0.567837 -4.06765 84 190 215
-0.318191 0.577708 -4.0686 85 191 217
-0.321682 0.586357 -4.07923 88 194 219
-0.320769 0.597449 -4.0705 96 197 219
-0.328665 0.603655 -4.10049 105 201 217
-0.327752 0.614747 -4.09176 106 200 217
-0.326838 0.625839 -4.08304 105 201 218
-0.33033 0.634488 -4.09367 110 202 218
-0.327214 0.646802 -4.07527 108 201 218
-0.330706 0.655451 -4.0859 106 198 215
-0.334197 0.6641 -4.09653 115 199 214
-0.337689 0.672749 -4.10716 121 197 213
-0.334573 0.685063 -4.08876 125 200 215
-0.335862 0.694934 -4.08971 130 199 214
-0.334949 0.706027 -4.08098 137 200 214
-0.336238 0.715897 -4.08194 140 199 211
-0.337527 0.725768 -4.08289 142 202 213
-0.338816 0.735639 -4.08384 150 203 214
-0.340105 0.745509 -4.08479 147 195 206
-0.343597 0.754158 -4.09542 163 203 212
-0.342684 0.765251 -4.0867 173 207 217
-0.348377 0.772678 -4.10701 187 216 223
-0.349666 0.782549 -4.10796 208 230 235
-0.350955 0.792419 -4.10891 217 232 235
-0.372817 0.833221 -4.18142 218 233 232
-0.382002 0.849297 -4.21236 216 227 221
-0.383291 0.859168 -4.21331 213 222 212
-0.395592 0.86293 -4.26265 213 228 217
-0.396881 0.872801 -4.26361 208 222 207
-0.413586 0.87412 -4.3323 208 220 210
-0.406657 0.983822 -4.25473 165 164 156
-0.410577 1.14043 -4.20128 179 179 174
-0.410953 1.1614 -4.1935 184 186 180
-0.442 1.21828 -4.29695 186 189 183
-0.450325 1.37244 -4.26285 175 177 172
-0.467406 1.39473 -4.32378 182 184 179
-0.55426 1.89701 -4.46042 164 161 162
-0.557752 1.90566 -4.47105 161 156 158
-0.563445 1.91308 -4.49135 157 153 155
0.0415284 -1.1431 -3.38557 30 38 35
0.038037 -1.13445 -3.3962 23 35 30
0.0257364 -1.13069 -3.44555 47 67 52
0.0266496 -1.1196 -3.43682 52 71 54
0.0275628 -1.10851 -3.4281 52 70 53
0.0145103 -1.06282 -3.46189 121 100 36
0.0154235 -1.05172 -3.45317 120 100 26
0.0097298 -1.0443 -3.47348 163 143 43
0.00623839 -1.03565 -3.48411 179 166 53
0.0137585 -1.02089 -3.44635 171 156 62
0.0058625 -1.01469 -3.47633 192 188 72
-0.0400632 -0.934303 -3.63103 136 93 21
-0.0413523 -0.924433 -3.63198 132 86 18
-0.0404391 -0.91334 -3.62325 130 83 21
-0.0439305 -0.904691 -3.63388 129 83 22
-0.0430173 -0.893599 -3.62516 129 85 23
-0.0465087 -0.88495 -3.63579 139 93 31
-0.0477978 -0.875079 -3.63674 135 89 28
-0.0468846 -0.863987 -3.62802 134 87 25
-0.0481737 -0.854116 -3.62897 125 80 20
-0.0494628 -0.844245 -3.62992 122 78 18
-0.0485496 -0.833153 -3.6212 124 80 18
-0.0498387 -0.823282 -3.62215 128 84 21
-0.0533301 -0.814633 -3.63278 130 85 21
-0.0524169 -0.803541 -3.62406 121 76 15
-0.053706 -0.79367 -3.62501 128 83 17
-0.0549951 -0.7838 -3.62596 126 82 19
-0.0562842 -0.773929 -3.62691 120 75 15
-0.0597756 -0.76528 -3.63754 133 89 21
-0.0588624 -0.754187 -3.62882 124 80 17
-0.0601515 -0.744317 -3.62977 122 78 15
-0.0614406 -0.734446 -3.63072 123 79 16
-0.0605274 -0.723354 -3.622 125 80 18
-0.0640188 -0.714705 -3.63263 128 83 21
-0.065308 -0.704834 -3.63358 128 85 21
-0.0665971 -0.694963 -3.63454 133 89 22
-0.0700885 -0.686314 -3.64517 136 93 24
-0.0669729 -0.674 -3.62676 121 77 13
-0.068262 -0.66413 -3.62772 128 84 17
-0.0717535 -0.655481 -3.63835 136 92 23
-0.0708403 -0.644388 -3.62962 131 88 19
-0.0721294 -0.634517 -3.63057 132 89 18
-0.0712161 -0.623425 -3.62185 133 89 16
-0.0769099 -0.615998 -3.64216 150 106 30
-0.0759967 -0.604905 -3.63343 150 107 29
-0.0750835 -0.593813 -3.62471 151 107 30
-0.0763726 -0.583942 -3.62566 156 112 34
-0.0776617 -0.574072 -3.62661 147 103 31
-0.0789508 -0.564201 -3.62756 135 90 22
-0.081529 -0.544459 -3.62947 143 104 30
-0.0828181 -0.534589 -3.63042 138 100 34
-0.0863095 -0.52594 -3.64105 146 106 52
-0.083194 -0.513626 -3.62265 156 120 75
-0.0844831 -0.503755 -3.6236 147 114 82
-0.0857722 -0.493884 -3.62456 159 128 105
-0.0870613 -0.484014 -3.62551 176 147 131
-0.0883504 -0.474143 -3.62646 169 142 128
-0.0896395 -0.464272 -3.62741 168 143 130
-0.0909286 -0.454402 -3.62837 183 158 144
-0.0922177 -0.444531 -3.62932 174 148 131
-0.0935068 -0.43466 -3.63027 173 148 130
-0.0947959 -0.424789 -3.63123 180 157 140
-0.0938827 -0.413697 -3.6225 177 153 138
-0.0951718 -0.403826 -3.62345 184 161 146
-0.0964609 -0.393956 -3.62441 187 163 147
-0.09775 -0.384085 -3.62536 195 170 153
-0.0990391 -0.374214 -3.62631 204 182 166
-0.100328 -0.364344 -3.62726 208 185 169
-0.101617 -0.354473 -3.62822 209 186 170
-0.102906 -0.344602 -3.62917 206 182 166
-0.104195 -0.334731 -3.63012 213 191 175
-0.105485 -0.324861 -3.63107 217 198 183
-0.104571 -0.313768 -3.62235 214 193 178
-0.10586 -0.303898 -3.6233 213 193 179
-0.10715 -0.294027 -3.62425 214 195 181
-0.108439 -0.284156 -3.62521 218 199 186
-0.109728 -0.274286 -3.62616 218 198 184
-0.111017 -0.264415 -3.62711 218 200 186
-0.112306 -0.254544 -3.62807 219 202 190
-0.113595 -0.244674 -3.62902 222 204 192
-0.114884 -0.234803 -3.62997 224 208 196
-0.113971 -0.22371 -3.62125 215 201 190
-0.117462 -0.215061 -3.63188 217 204 192
-0.116549 -0.203969 -3.62315 217 204 194
-0.117838 -0.194098 -3.6241 220 205 195
-0.119127 -0.184228 -3.62506 219 206 196
-0.120417 -0.174357 -3.62601 221 208 199
-0.121706 -0.164486 -3.62696 223 209 200
-0.122995 -0.154616 -3.62791 220 208 198
-0.124284 -0.144745 -3.62887 217 206 196
-0.125573 -0.134874 -3.62982 220 205 194
-0.12466 -0.123782 -3.6211 221 209 199
-0.128151 -0.115133 -3.63173 221 206 193
-0.12944 -0.105262 -3.63268 223 205 190
-0.128527 -0.0941697 -3.62395 221 195 174
-0.134221 -0.0867424 -3.64426 142 108 82
-0.133308 -0.07565 -3.63554 129 89 60
-0.146736 -0.00899851 -3.66156 160 112 82
-0.181436 0.00350993 -3.79991 200 171 139
-0.22387 0.0752426 -3.94397 94 95 76
-0.240038 0.108617 -3.99617 96 101 81
-0.221882 0.150446 -3.90225 88 110 89
-0.223171 0.160317 -3.9032 79 110 93
-0.228865 0.167744 -3.92351 89 116 100
-0.272588 0.249347 -4.06852 75 175 201
-0.283277 0.349276 -4.06837 85 192 221
-0.291173 0.355481 -4.09836 95 194 222
-0.29026 0.366574 -4.08963 94 194 221
-0.291549 0.376445 -4.09059 95 196 222
-0.292838 0.386315 -4.09154 98 196 222
-0.289722 0.398629 -4.07314 100 200 223
-0.293214 0.407278 -4.08377 100 197 220
-0.296705 0.415927 -4.0944 104 200 220
-0.297994 0.425798 -4.09535 104 200 220
-0.294879 0.438112 -4.07695 102 198 219
-0.29837 0.446761 -4.08758 101 196 217
-0.295255 0.459075 -4.06917 107 199 221
-0.298746 0.467724 -4.07981 108 198 219
-0.302238 0.476373 -4.09044 104 196 219
-0.305729 0.485022 -4.10107 108 198 219
-0.302614 0.497336 -4.08266 102 195 217
-0.303903 0.507207 -4.08362 102 194 217
-0.307394 0.515856 -4.09425 100 194 217
-0.308683 0.525727 -4.0952 98 194 216
-0.30777 0.536819 -4.08647 96 194 215
-0.311261 0.545468 -4.0971 100 197 216
-0.308146 0.557782 -4.0787 102 199 216
-0.31384 0.565209 -4.09901 103 198 214
-0.315129 0.57508 -4.09996 103 197 211
-0.312013 0.587394 -4.08156 105 201 214
-0.313302 0.597265 -4.08251 114 204 214
-0.321198 0.603471 -4.1125 122 204 210
-0.320285 0.614563 -4.10377 124 204 210
-0.323776 0.623212 -4.1144 138 208 211
-0.322863 0.634304 -4.10568 130 204 212
-0.319748 0.646618 -4.08728 130 204 213
-0.321037 0.656489 -4.08823 134 201 210
-0.322326 0.66636 -4.08918 136 200 210
-0.323615 0.676231 -4.09013 135 197 209
-0.324904 0.686101 -4.09109 144 196 208
-0.326193 0.695972 -4.09204 149 194 207
-0.327482 0.705843 -4.09299 152 195 208
-0.326569 0.716935 -4.08427 162 189 202
-0.330061 0.725584 -4.0949 163 193 203
-0.33135 0.735455 -4.09585 165 189 199
-0.330436 0.746547 -4.08713 167 184 194
-0.333928 0.755196 -4.09776 176 190 199
-0.335217 0.765067 -4.09871 186 200 208
-0.336506 0.774937 -4.09966 195 209 216
-0.337795 0.784808 -4.10061 210 224 229
-0.339084 0.794679 -4.10157 217 227 230
-0.34553 0.844032 -4.10633 219 229 219
-0.368842 0.841686 -4.20406 217 228 225
-0.370131 0.851557 -4.20501 213 223 215
-0.384634 0.854097 -4.26403 218 226 220
-0.385923 0.863968 -4.26498 217 227 216
-0.387212 0.873839 -4.26594 209 222 206
-0.397311 0.878823 -4.3056 213 223 208
-0.405797 0.979973 -4.29577 177 175 168
-0.404722 1.04408 -4.26278 151 146 140
-0.381625 1.12041 -4.13301 173 174 168
-0.378509 1.13273 -4.1146 173 173 169
-0.372278 1.15735 -4.0778 175 176 170
-0.393388 1.15623 -4.16585 185 188 182
-0.465633 1.40197 -4.35609 177 178 173
-0.538897 1.89062 -4.44244 164 159 160
-0.546794 1.89682 -4.47242 160 158 159
-0.548083 1.90669 -4.47338 162 157 160
-0.555979 1.9129 -4.50336 160 157 159
0.177373 -1.29437 -2.9324 27 31 26
0.0289598 -1.0803 -3.45264 95 76 42
0.0285839 -1.05934 -3.44487 110 88 31
0.0250924 -1.05069 -3.4555 130 108 28
0.021601 -1.04204 -3.46613 160 139 40
0.0203119 -1.03217 -3.46708 174 158 46
0.0146182 -1.02474 -3.48739 191 183 60
-0.0269029 -0.941915 -3.62273 131 94 9
-0.0294811 -0.922173 -3.62463 138 97 17
-0.0342616 -0.903654 -3.63622 140 100 23
-0.0346375 -0.88269 -3.62844 141 101 23
-0.0359266 -0.87282 -3.6294 135 94 19
-0.0372157 -0.862949 -3.63035 124 82 12
-0.0407071 -0.8543 -3.64098 135 96 20
-0.0419962 -0.844429 -3.64193 137 97 22
-0.041083 -0.833337 -3.63321 136 97 20
-0.0423721 -0.823466 -3.63416 130 90 14
-0.0414589 -0.812374 -3.62543 139 99 19
-0.042748 -0.802503 -3.62639 142 102 22
-0.0440371 -0.792633 -3.62734 140 100 20
-0.0475285 -0.783984 -3.63797 148 109 24
-0.0466153 -0.772891 -3.62924 165 125 39
-0.0479044 -0.76302 -3.6302 160 120 36
-0.0469912 -0.751928 -3.62147 161 122 35
-0.0526849 -0.744501 -3.64178 174 135 47
-0.0561764 -0.735852 -3.65241 170 132 43
-0.0574655 -0.725981 -3.65336 163 124 35
-0.0521476 -0.712445 -3.62528 188 150 59
-0.0644483 -0.708683 -3.67462 167 130 44
-0.0613328 -0.696369 -3.65622 170 132 45
-0.0626219 -0.686498 -3.65717 172 135 47
-0.063911 -0.676628 -3.65813 177 138 49
-0.0585931 -0.663092 -3.63005 196 159 64
-0.0598822 -0.653221 -3.631 195 158 63
-0.0611713 -0.64335 -3.63195 201 165 67
-0.0624604 -0.63348 -3.63291 194 157 63
-0.0637495 -0.623609 -3.63386 197 159 63
-0.0628363 -0.612517 -3.62513 205 169 72
-0.0663277 -0.603868 -3.63576 203 167 66
-0.0654145 -0.592775 -3.62704 212 176 74
-0.0667036 -0.582905 -3.62799 213 177 73
-0.0679927 -0.573034 -3.62894 216 181 78
-0.0692818 -0.563163 -3.6299 214 178 80
-0.0683686 -0.552071 -3.62117 210 175 73
-0.0718601 -0.543422 -3.6318 210 177 81
-0.0709468 -0.532329 -3.62308 205 173 88
-0.0744383 -0.52368 -3.63371 162 131 60
-0.0757274 -0.51381 -3.63466 173 143 88
-0.0770165 -0.503939 -3.63561 214 185 152
-0.0783056 -0.494068 -3.63657 217 190 171
-0.0773924 -0.482976 -3.62784 219 196 184
-0.0786815 -0.473105 -3.62879 220 200 195
-0.0799706 -0.463234 -3.62975 222 204 201
-0.0812597 -0.453364 -3.6307 222 205 202
-0.0825488 -0.443493 -3.63165 216 202 197
-0.0816356 -0.432401 -3.62293 212 200 192
-0.085127 -0.423752 -3.63356 214 201 192
-0.0842138 -0.412659 -3.62483 212 201 190
-0.0855029 -0.402789 -3.62578 211 200 189
-0.086792 -0.392918 -3.62674 213 200 190
-0.0880811 -0.383047 -3.62769 212 200 189
-0.0871679 -0.371955 -3.61896 213 201 191
-0.0906593 -0.363306 -3.62959 210 200 189
-0.0919484 -0.353435 -3.63055 210 199 189
-0.0910352 -0.342343 -3.62182 212 201 190
-0.0923243 -0.332472 -3.62278 209 199 189
-0.0936134 -0.322601 -3.62373 211 202 192
-0.0949025 -0.312731 -3.62468 213 202 191
-0.0961916 -0.30286 -3.62563 209 199 190
-0.0974807 -0.292989 -3.62659 208 199 190
-0.100972 -0.28434 -3.63722 213 205 196
-0.100059 -0.273248 -3.62849 215 206 196
-0.101348 -0.263377 -3.62944 214 205 196
-0.102637 -0.253506 -3.6304 217 207 198
-0.101724 -0.242414 -3.62167 214 207 198
-0.103013 -0.232543 -3.62262 214 207 199
-0.106504 -0.223894 -3.63326 214 207 198
-0.119771 -0.104224 -3.63501 219 207 195
-0.118858 -0.093132 -3.62628 221 201 184
-0.120147 -0.0832613 -3.62724 159 133 112
-0.128043 -0.0770556 -3.65722 128 89 62
-0.123853 -0.000630642 -3.60583 140 93 66
-0.129547 0.00679668 -3.62613 141 96 72
-0.157264 0.00200711 -3.74322 184 148 118
-0.147541 0.0179862 -3.69578 205 176 147
-0.205553 0.0281485 -3.93186 205 198 175
-0.214201 0.0762803 -3.9463 98 98 80
-0.213288 0.0873727 -3.93757 100 99 81
-0.230369 0.109655 -3.9985 93 98 78
-0.215705 0.160133 -3.91521 86 113 93
-0.219196 0.168782 -3.92584 93 124 109
-0.26163 0.240514 -4.0699 78 170 190
-0.265122 0.249163 -4.08053 81 177 198
-0.265498 0.270126 -4.07276 87 196 225
-0.268989 0.278775 -4.08339 83 196 228
-0.270278 0.288646 -4.08434 82 195 226
-0.271567 0.298517 -4.0853 84 196 226
-0.272856 0.308387 -4.08625 85 195 224
-0.271943 0.31948 -4.07752 87 196 223
-0.275434 0.328129 -4.08815 88 194 220
-0.276724 0.338 -4.08911 88 194 220
-0.280215 0.346649 -4.09974 93 192 218
-0.283706 0.355298 -4.11037 104 192 216
-0.282793 0.36639 -4.10164 107 195 216
-0.286285 0.375039 -4.11227 113 194 216
-0.280967 0.388575 -4.08419 112 198 218
-0.282256 0.398445 -4.08515 123 202 220
-0.28795 0.405873 -4.10545 124 199 219
-0.284834 0.418187 -4.08705 124 203 219
-0.288325 0.426836 -4.09768 125 201 218
-0.291817 0.435485 -4.10831 127 199 215
-0.286499 0.449021 -4.08023 119 200 217
-0.287788 0.458891 -4.08118 122 201 218
-0.289077 0.468762 -4.08214 125 199 216
-0.290366 0.478633 -4.08309 129 198 216
-0.293858 0.487282 -4.09372 127 199 214
-0.292945 0.498374 -4.08499 126 200 216
-0.294234 0.508245 -4.08595 129 199 215
-0.297725 0.516894 -4.09658 128 199 211
-0.296812 0.527986 -4.08785 127 200 212
-0.295899 0.539079 -4.07913 129 203 212
-0.29939 0.547728 -4.08976 123 203 210
-0.302882 0.556377 -4.10039 128 204 207
-0.306373 0.565026 -4.11102 134 207 207
-0.303257 0.57734 -4.09262 127 207 207
-0.304547 0.58721 -4.09357 129 207 206
-0.303633 0.598303 -4.08484 135 207 203
-0.307125 0.606952 -4.09547 139 207 202
-0.308414 0.616822 -4.09643 150 210 205
-0.314108 0.62425 -4.11674 163 210 206
-0.310992 0.636564 -4.09833 157 209 206
-0.310079 0.647656 -4.08961 161 203 204
-0.311368 0.657527 -4.09056 164 201 205
-0.312657 0.667398 -4.09151 163 195 202
-0.313946 0.677268 -4.09247 163 189 198
-0.317438 0.685917 -4.1031 162 188 198
-0.318727 0.695788 -4.10405 167 184 195
-0.317813 0.70688 -4.09532 175 184 198
-0.319103 0.716751 -4.09628 176 180 193
-0.320392 0.726622 -4.09723 179 179 192
-0.321681 0.736492 -4.09818 185 177 190
-0.32297 0.746363 -4.09913 181 174 186
-0.324259 0.756234 -4.10009 183 177 188
-0.323346 0.767326 -4.09136 190 180 190
-0.324635 0.777197 -4.09231 201 200 207
-0.329415 0.795717 -4.1039 217 221 226
-0.351277 0.836518 -4.17641 216 226 223
-0.359173 0.842724 -4.20639 218 225 222
-0.380283 0.841599 -4.29444 224 228 229
-0.388179 0.847805 -4.32443 220 227 224
-0.389468 0.857676 -4.32538 218 226 219
-0.386353 0.86999 -4.30698 212 222 209
-0.403058 0.871309 -4.37567 215 225 216
-0.399942 0.883623 -4.35727 212 222 210
-0.386943 0.964935 -4.26716 182 181 173
-0.392637 0.972362 -4.28747 184 183 175
-0.389521 0.984676 -4.26907 178 176 169
-0.397417 0.990882 -4.29906 182 182 174
-0.4044 1.00818 -4.32032 170 169 162
-0.403487 1.01927 -4.31159 169 168 162
-0.405528 1.07107 -4.297 170 165 160
-0.402412 1.08338 -4.2786 171 169 163
-0.405904 1.09203 -4.28923 174 172 166
-0.40499 1.10312 -4.2805 179 178 171
-0.40628 1.11299 -4.28145 180 179 173
-0.405366 1.12409 -4.27273 181 181 174
-0.407031 1.15492 -4.26591 186 188 181
-0.444148 1.24019 -4.38189 179 182 176
-0.441032 1.2525 -4.36349 180 182 177
-0.538414 1.90773 -4.47571 162 159 160
-0.5375 1.91882 -4.46698 155 145 147
0.0548474 -1.67365 -3.65229 39 57 50
0.188868 -1.27115 -2.91729 11 13 11
0.133381 -1.15373 -3.09514 24 32 30
-0.0181472 -0.951969 -3.63378 212 185 64
-0.017234 -0.940877 -3.62506 208 178 60
-0.0185231 -0.931006 -3.62601 207 174 62
-0.0211013 -0.911265 -3.62792 203 169 64
-0.0236795 -0.891523 -3.62982 212 179 73
-0.0249686 -0.881653 -3.63077 209 176 71
-0.0262577 -0.871782 -3.63173 214 180 75
-0.0253445 -0.86069 -3.623 204 171 66
-0.0288359 -0.852041 -3.63363 216 183 77
-0.0279227 -0.840948 -3.62491 210 177 70
-0.0314141 -0.832299 -3.63554 205 172 65
-0.0305009 -0.821207 -3.62681 213 180 73
-0.03179 -0.811336 -3.62777 216 183 74
-0.0330791 -0.801465 -3.62872 215 181 73
-0.0343682 -0.791595 -3.62967 218 185 77
-0.0356573 -0.781724 -3.63062 217 183 75
-0.0369464 -0.771853 -3.63158 217 184 72
-0.0382355 -0.761983 -3.63253 218 185 73
-0.0395246 -0.752112 -3.63348 213 180 68
