ply
format ascii 1.0
element face 0
property list uchar int vertex_indices
element vertex 1232
property float x
property float y
property float z
property uchar diffuse_red
property uchar diffuse_green
property uchar diffuse_blue
end_header
0.416714 -0.846649 -3.76897 223 70 33
0.412688 -0.837503 -3.76861 226 60 33
0.401248 -0.831384 -3.77424 216 56 27
0.381954 -0.688187 -3.73928 223 46 40
0.256952 -0.523423 -3.76804 27 26 27
0.285969 -0.489987 -3.73738 32 30 29
0.237658 -0.380226 -3.73308 189 192 190
0.210753 -0.358842 -3.74398 33 34 33
0.214141 -0.346667 -3.73763 46 47 46
0.205451 -0.307052 -3.73021 214 215 213
0.201425 -0.297905 -3.72985 211 214 211
0.189985 -0.291787 -3.73548 216 224 219
0.181933 -0.273493 -3.73477 214 212 213
0.169855 -0.246053 -3.73369 39 17 16
0.15439 -0.230788 -3.73896 130 47 49
0.157778 -0.218613 -3.73262 179 59 61
0.153752 -0.209466 -3.73226 182 88 85
0.141674 -0.182025 -3.73118 222 214 209
0.132346 -0.121088 -3.71705 202 203 197
0.108828 -0.0875293 -3.72161 215 217 215
-0.16445 0.0166649 -3.87014 203 181 152
-0.273986 0.166164 -3.89363 120 123 121
-0.44897 0.245763 -3.98443 101 182 208
-0.445582 0.257938 -3.97809 116 184 210
-0.449608 0.267085 -3.97773 107 182 210
-0.44622 0.27926 -3.97138 112 181 206
-0.45766 0.285378 -3.97701 98 185 210
-0.454272 0.297554 -3.97066 102 183 207
-0.473125 0.300643 -3.98228 89 189 214
-0.469737 0.312819 -3.97594 93 187 209
-0.46635 0.324994 -3.96959 108 189 210
-0.477789 0.331112 -3.97522 99 190 212
-0.474401 0.343287 -3.96887 105 194 214
-0.478427 0.352434 -3.96851 106 197 216
-0.47504 0.364609 -3.96217 111 193 210
-0.479065 0.373756 -3.96181 104 194 213
-0.490505 0.379874 -3.96744 89 191 215
-0.487117 0.39205 -3.96109 97 194 215
-0.540093 0.53228 -3.94973 94 186 201
-0.552808 0.581042 -3.94195 99 187 203
-0.570188 0.660273 -3.9271 88 184 211
-0.585654 0.675538 -3.93237 108 190 210
-0.58968 0.684685 -3.93201 111 187 202
-0.593706 0.693832 -3.93166 123 188 200
-0.651543 0.745745 -3.9531 227 236 237
-0.670396 0.748835 -3.96472 228 235 237
-0.607698 0.785238 -3.91046 226 234 238
-0.59012 0.824792 -3.88543 226 234 237
-0.60156 0.830911 -3.89106 226 233 237
-0.773354 0.803899 -4.01539 222 230 233
-0.688414 0.849388 -3.94317 223 231 234
-0.835657 1.00507 -3.9899 178 177 170
-0.865951 1.01427 -4.00715 177 175 169
-0.87739 1.02039 -4.01278 178 176 170
-0.993307 1.38311 -3.96921 165 159 156
-1.03101 1.38929 -3.99245 169 163 160
-1.07613 1.39244 -4.02168 164 159 157
-1.07275 1.40462 -4.01533 155 147 145
-1.08419 1.41074 -4.02096 155 147 144
-1.11787 1.40777 -4.04456 155 147 145
-1.12931 1.41389 -4.05019 156 149 146
-1.14816 1.41698 -4.0618 154 146 143
-1.16701 1.42007 -4.07342 151 142 140
1.387 -0.989375 -3.17806 141 146 139
0.839171 -0.738343 -3.46172 104 130 90
0.422083 -0.843973 -3.77697 223 55 28
0.425471 -0.831797 -3.77062 232 49 33
0.387323 -0.685511 -3.74728 217 46 41
0.283925 -0.490339 -3.75137 29 27 27
0.214846 -0.313522 -3.73857 213 212 210
0.21082 -0.304375 -3.73821 211 212 209
0.19069 -0.258641 -3.73642 36 31 31
0.186664 -0.249494 -3.73606 36 27 23
0.182638 -0.240348 -3.7357 58 23 19
0.171199 -0.234229 -3.74133 113 27 26
0.167173 -0.225083 -3.74097 185 50 53
0.163147 -0.215936 -3.74062 198 66 67
0.173948 -0.200732 -3.72828 137 26 24
0.126275 -0.112293 -3.73068 210 215 209
-0.27603 0.165812 -3.90762 128 130 127
-0.235573 0.19313 -3.87133 151 172 178
-0.291496 0.181077 -3.9129 194 193 200
-0.420083 0.214881 -3.98788 159 156 181
-0.424109 0.224028 -3.98752 152 174 198
-0.435549 0.230146 -3.99315 132 179 201
-0.446989 0.236264 -3.99878 117 186 207
-0.443601 0.248439 -3.99243 127 182 207
-0.447627 0.257586 -3.99208 116 184 210
-0.459066 0.263705 -3.99771 106 183 210
-0.448265 0.278908 -3.98537 118 181 205
-0.459704 0.285027 -3.991 109 183 207
-0.456317 0.297202 -3.98465 109 182 204
-0.467756 0.30332 -3.99028 102 182 204
-0.464368 0.315495 -3.98394 104 186 206
-0.468394 0.324642 -3.98358 110 186 204
-0.479834 0.33076 -3.98921 102 186 206
-0.476446 0.342936 -3.98286 110 192 209
-0.473058 0.355111 -3.97651 118 196 212
-0.484498 0.361229 -3.98214 104 195 213
-0.48111 0.373404 -3.9758 115 194 208
-0.477722 0.38558 -3.96945 120 193 206
-0.489162 0.391698 -3.97508 102 196 215
-0.47836 0.406902 -3.96274 122 194 209
-0.482386 0.416048 -3.96239 109 193 211
-0.493826 0.422167 -3.96802 95 190 212
-0.497852 0.431314 -3.96766 90 189 214
-0.560155 0.632481 -3.94217 88 185 208
-0.646174 0.748422 -3.9611 227 237 239
-0.657613 0.75454 -3.96673 228 235 237
-0.596191 0.833587 -3.89906 226 233 237
-0.629872 0.83062 -3.92266 225 233 236
-0.596829 0.854909 -3.89236 226 232 236
-0.675631 0.855093 -3.94518 224 231 234
-0.8269 1.01992 -3.99155 179 177 170
-0.864607 1.0261 -4.01479 177 175 169
-0.883461 1.02919 -4.02641 176 174 168
-0.957644 1.37658 -3.95996 165 160 158
-0.976498 1.37967 -3.97158 168 162 159
-1.06738 1.4073 -4.02333 164 157 155
-1.08623 1.41038 -4.03495 161 154 152
-1.1017 1.42565 -4.04022 153 144 142
-1.13538 1.42268 -4.06382 154 146 144
-1.15423 1.42577 -4.07544 152 143 141
1.46292 -1.08737 -3.1724 156 157 152
1.38496 -0.989727 -3.19205 138 145 136
0.442917 -0.856561 -3.7797 228 58 35
0.446305 -0.844386 -3.77335 229 51 36
0.420038 -0.844325 -3.79096 225 51 29
0.389304 -0.695009 -3.76163 232 44 39
0.383364 -0.621896 -3.74115 135 93 88
0.29332 -0.496809 -3.75973 30 28 29
0.281242 -0.469368 -3.75865 183 181 180
0.277216 -0.460222 -3.75829 207 206 204
0.265138 -0.432781 -3.75722 40 41 38
0.236319 -0.347432 -3.748 212 212 211
0.232293 -0.338285 -3.74765 213 214 212
0.228267 -0.329138 -3.74729 212 213 211
0.224241 -0.319992 -3.74693 214 214 213
0.188007 -0.237671 -3.7437 68 19 16
0.183981 -0.228524 -3.74334 158 36 36
0.172542 -0.222406 -3.74897 193 53 55
0.179317 -0.198055 -3.73628 127 15 12
0.175292 -0.188909 -3.73592 92 17 14
0.178679 -0.176733 -3.72958 62 26 19
0.170628 -0.15844 -3.72886 52 42 39
-0.251808 0.165399 -3.90401 98 109 105
-0.230204 0.195807 -3.87933 160 185 189
-0.403274 0.211439 -3.99025 196 136 160
-0.4073 0.220586 -3.98989 187 140 168
-0.411326 0.229733 -3.98953 183 145 173
-0.422766 0.235851 -3.99516 166 163 189
-0.441619 0.238941 -4.00678 137 183 205
-0.445645 0.248088 -4.00642 142 180 205
-0.449671 0.257234 -4.00607 132 182 209
-0.446283 0.26941 -3.99972 142 178 204
-0.450309 0.278557 -3.99936 130 181 206
-0.461749 0.284675 -4.00499 122 182 205
-0.458361 0.29685 -3.99864 129 183 205
-0.462387 0.305997 -3.99828 127 183 203
-0.458999 0.318172 -3.99194 135 190 209
-0.470439 0.32429 -3.99757 128 189 207
-0.452224 0.342523 -3.97924 164 184 202
-0.471077 0.345612 -3.99086 134 193 209
-0.467689 0.357788 -3.98451 139 192 204
-0.479129 0.363906 -3.99015 120 192 206
-0.483155 0.373053 -3.98979 120 192 206
-0.472353 0.388256 -3.97745 135 189 199
-0.468965 0.400432 -3.9711 141 190 201
-0.472991 0.409578 -3.97075 138 190 203
-0.477017 0.418725 -3.97039 127 192 207
-0.488457 0.424843 -3.97602 109 193 212
-0.499897 0.430962 -3.98165 98 190 211
-0.496509 0.443137 -3.9753 97 189 211
-0.500535 0.452284 -3.97494 98 189 212
-0.497147 0.464459 -3.96859 87 184 209
-0.501173 0.473606 -3.96824 85 184 208
-0.649494 0.790714 -3.96168 228 234 236
-0.613063 0.827179 -3.92503 226 233 237
-0.624503 0.833297 -3.93066 226 233 237
-0.666236 0.848623 -3.95354 224 232 235
-0.681702 0.863888 -3.95881 223 231 234
-0.648659 0.888177 -3.92851 223 231 234
-0.689556 1.00097 -3.91822 196 197 192
-0.813479 1.0043 -4.00027 179 178 172
-0.825557 1.03174 -3.99919 179 177 170
-0.866652 1.02575 -4.02878 177 175 169
-0.870678 1.03489 -4.02842 177 174 168
-0.900971 1.0441 -4.04567 174 172 166
-0.882756 1.06233 -4.02734 178 176 169
-0.886782 1.07148 -4.02699 180 178 170
-0.975155 1.39149 -3.97923 168 162 159
-0.994008 1.39458 -3.99084 167 161 158
-1.01286 1.39767 -4.00246 170 164 161
-1.01689 1.40682 -4.0021 166 158 155
-1.03574 1.40991 -4.01372 165 157 154
-1.04718 1.41603 -4.01935 161 152 150
-1.06603 1.41912 -4.03097 159 151 148
-1.08891 1.43136 -4.04223 155 145 143
-1.10777 1.43444 -4.05385 155 145 143
1.43844 -1.2156 -3.24423 158 157 152
0.452313 -0.863031 -3.78805 225 51 31
0.4557 -0.850856 -3.78171 228 47 35
0.436847 -0.847766 -3.79333 234 47 34
0.394673 -0.692332 -3.76963 223 47 42
0.306103 -0.491104 -3.76174 32 30 29
0.305465 -0.469781 -3.75503 38 36 34
0.294025 -0.463663 -3.76066 194 192 192
0.289999 -0.454516 -3.76031 214 213 212
0.293387 -0.442341 -3.75396 220 219 217
0.270507 -0.430105 -3.76522 45 47 44
0.257791 -0.381342 -3.75744 204 206 204
0.241688 -0.344755 -3.756 213 213 212
0.20079 -0.231966 -3.74571 79 17 15
0.189351 -0.225847 -3.75134 182 42 44
0.1921 -0.19235 -3.73829 162 53 47
0.188074 -0.183203 -3.73793 115 46 39
0.184048 -0.174057 -3.73758 74 34 26
0.180023 -0.16491 -3.73722 51 27 22
0.171971 -0.146616 -3.7365 39 33 32
-0.253852 0.165048 -3.91799 98 113 105
-0.261904 0.183341 -3.91728 196 206 212
-0.393879 0.204969 -3.99861 194 124 147
-0.397905 0.214116 -3.99825 198 132 156
-0.401931 0.223263 -3.99789 200 130 156
-0.402569 0.244585 -3.99119 209 124 157
-0.406595 0.253732 -3.99083 207 132 164
-0.410621 0.262878 -3.99047 203 138 167
-0.392406 0.281111 -3.97215 215 129 162
-0.411259 0.2842 -3.98376 206 140 167
-0.422699 0.290319 -3.98939 190 144 173
-0.45638 0.287351 -4.01299 147 179 202
-0.452992 0.299527 -4.00664 153 179 200
-0.427363 0.320788 -3.98233 192 131 162
-0.461044 0.31782 -4.00593 150 182 202
-0.502139 0.311825 -4.03551 113 183 206
-0.469096 0.336114 -4.00521 152 189 206
-0.510191 0.330118 -4.03479 110 184 206
-0.469734 0.357436 -3.9985 155 189 202
-0.47376 0.366583 -3.99815 145 189 200
-0.477786 0.375729 -3.99779 145 192 203
-0.474398 0.387905 -3.99144 142 191 201
-0.463596 0.403108 -3.9791 159 185 194
-0.467622 0.412255 -3.97875 153 183 195
-0.471648 0.421402 -3.97839 148 186 199
-0.46826 0.433577 -3.97204 153 182 193
-0.487114 0.436667 -3.98366 121 192 207
-0.476312 0.451871 -3.97132 141 193 204
-0.480338 0.461018 -3.97097 123 192 205
-0.499192 0.464107 -3.98258 102 188 210
-0.503218 0.473254 -3.98223 103 191 212
-0.492416 0.488458 -3.96989 105 192 205
-0.496442 0.497605 -3.96953 101 191 205
-0.507882 0.503723 -3.97516 95 190 212
-0.644125 0.793391 -3.96968 227 234 236
-0.607694 0.829855 -3.93303 226 234 237
-0.619134 0.835974 -3.93866 226 233 237
-0.664893 0.860447 -3.96118 224 232 234
-0.654091 0.87565 -3.94885 223 232 235
-0.722092 0.891038 -3.98933 222 230 233
-0.815524 1.00395 -4.01426 179 179 172
-0.857257 1.01928 -4.03714 178 176 171
-0.888827 1.07113 -4.04097 179 177 169
-0.900266 1.07725 -4.04661 179 177 170
-1.00749 1.40035 -4.01046 168 163 160
-1.02698 1.42476 -4.01538 164 156 153
-1.05728 1.43397 -4.03263 159 151 147
-1.1024 1.43712 -4.06185 159 152 149
-1.10642 1.44627 -4.06149 152 142 140
1.38239 -1.29197 -3.3199 160 163 159
0.473147 -0.875619 -3.79078 225 56 35
0.461708 -0.869501 -3.79641 226 49 32
0.450268 -0.863383 -3.80204 229 46 31
0.396654 -0.701831 -3.78397 233 48 42
0.41487 -0.683599 -3.76565 216 49 43
0.310834 -0.467105 -3.76303 31 30 29
0.295368 -0.45184 -3.76831 211 209 208
0.298756 -0.439664 -3.76196 214 214 213
0.286678 -0.412224 -3.76088 206 209 207
0.290066 -0.400049 -3.75454 207 209 207
0.229677 -0.262847 -3.74916 218 217 216
0.206159 -0.229289 -3.75372 111 27 26
0.202133 -0.220142 -3.75336 196 45 49
0.204883 -0.186645 -3.7403 142 25 23
0.200857 -0.177498 -3.73995 112 15 12
-0.19212 0.0396696 -3.93101 210 205 184
-0.241069 0.170753 -3.92001 104 126 121
-0.249121 0.189046 -3.91929 180 197 204
-0.391898 0.195471 -4.01296 198 135 154
-0.389786 0.25029 -3.9932 217 116 152
-0.386398 0.262465 -3.98685 220 120 155
-0.390424 0.271612 -3.98649 226 130 164
-0.398476 0.289906 -3.98578 219 123 156
-0.402502 0.299052 -3.98542 220 124 157
-0.406528 0.308199 -3.98506 217 122 155
-0.417968 0.314318 -3.99069 209 126 161
-0.41458 0.326493 -3.98434 218 124 158
-0.422632 0.344786 -3.98363 212 123 157
-0.426658 0.353933 -3.98327 209 125 156
-0.467753 0.347937 -4.01285 165 180 197
-0.427296 0.375255 -3.97656 215 129 159
-0.468391 0.369259 -4.00615 168 183 195
-0.472417 0.378406 -4.00579 163 188 200
-0.446787 0.399667 -3.98147 188 160 173
-0.450813 0.408814 -3.98112 183 159 172
-0.454839 0.41796 -3.98076 180 163 175
-0.481107 0.418022 -3.99837 146 188 199
-0.462891 0.436254 -3.98004 168 170 180
-0.481745 0.439344 -3.99166 140 190 201
-0.470943 0.454547 -3.97932 158 189 198
-0.489797 0.457637 -3.99094 126 194 207
-0.478995 0.472841 -3.97861 144 199 204
-0.497849 0.475931 -3.99023 115 193 210
-0.494461 0.488106 -3.98388 118 194 205
-0.483659 0.50331 -3.97154 140 206 204
-0.502512 0.5064 -3.98316 111 194 209
-0.499125 0.518575 -3.97681 106 194 202
-0.510564 0.524693 -3.98245 100 192 209
-0.507176 0.536868 -3.9761 97 190 202
-0.503789 0.549044 -3.96975 115 199 203
-0.515228 0.555162 -3.97538 102 193 211
-0.576058 0.832471 -3.92342 226 233 238
-0.580084 0.841618 -3.92307 226 233 238
-0.621179 0.835622 -3.95265 226 233 237
-0.640032 0.838712 -3.96427 226 233 236
-0.651472 0.84483 -3.9699 225 232 236
-0.625843 0.866091 -3.94559 224 232 236
-0.637283 0.872209 -3.95122 224 232 236
-0.648722 0.878327 -3.95685 223 232 235
-0.728163 0.899833 -4.00296 221 230 234
-0.783888 1.00657 -4.00465 181 181 174
-0.799991 1.04315 -4.00322 179 178 171
-0.85994 1.04025 -4.04442 176 174 168
-0.87138 1.04636 -4.05005 176 175 168
-0.829889 1.28993 -3.94072 174 172 167
-0.928821 1.33585 -3.99175 172 170 165
-0.942175 1.40593 -3.97726 168 162 159
-0.987296 1.40908 -4.00649 168 163 160
-1.01759 1.41829 -4.02374 166 160 157
-1.02162 1.42744 -4.02338 166 159 156
-1.03306 1.43356 -4.02901 165 157 154
-1.06674 1.43059 -4.0526 163 155 152
-1.07479 1.44888 -4.05189 161 153 150
-1.10106 1.44895 -4.06949 161 153 151
1.49789 -1.08243 -3.18478 159 160 156
1.38349 -1.02125 -3.24108 136 147 131
1.2712 -0.905249 -3.27763 110 155 90
0.482542 -0.882089 -3.79914 227 49 31
0.471103 -0.875971 -3.80477 227 46 29
0.450335 -0.808915 -3.79628 231 45 37
0.416851 -0.693097 -3.78 223 49 44
0.420239 -0.680922 -3.77365 203 49 41
0.299461 -0.406519 -3.7629 211 212 211
0.267892 -0.354667 -3.76673 67 66 67
0.566556 -0.178707 -3.50743 70 67 38
0.226356 -0.220555 -3.74974 150 36 37
0.207503 -0.217465 -3.76136 201 47 50
0.214278 -0.193115 -3.74866 145 15 14
0.210252 -0.183968 -3.7483 121 8 8
0.206226 -0.174821 -3.74795 117 12 12
0.194787 -0.168703 -3.75358 83 16 14
0.205588 -0.153499 -3.74124 145 43 41
0.0947763 0.038644 -3.75132 212 214 206
0.0833365 0.0447623 -3.75695 217 217 208
-0.243114 0.170401 -3.934 112 131 125
-0.421289 0.35661 -3.99127 219 118 155
-0.429341 0.374903 -3.99055 213 124 155
-0.411125 0.393136 -3.97223 216 124 158
-0.437392 0.393197 -3.98983 206 137 161
-0.434005 0.405372 -3.98349 211 141 164
-0.43803 0.414519 -3.98313 209 144 164
-0.456884 0.417609 -3.99475 183 166 180
-0.453496 0.429784 -3.9884 187 162 176
-0.457522 0.438931 -3.98804 185 164 175
-0.483789 0.438992 -4.00565 145 186 196
-0.465574 0.457224 -3.98732 172 177 183
-0.484428 0.460314 -3.99894 145 191 198
-0.466212 0.478546 -3.98062 177 195 193
-0.492479 0.478607 -3.99823 133 193 202
-0.481678 0.493811 -3.98589 142 202 200
-0.493117 0.49993 -3.99152 135 203 204
-0.474902 0.518162 -3.9732 168 215 202
-0.501169 0.518223 -3.9908 122 200 205
-0.505195 0.52737 -3.99045 114 196 204
-0.509221 0.536517 -3.99009 114 198 208
-0.49842 0.55172 -3.97775 127 205 197
-0.517273 0.55481 -3.98937 112 197 211
-0.513885 0.566985 -3.98302 113 199 210
-0.517911 0.576132 -3.98266 110 197 210
-0.521937 0.585279 -3.98231 110 197 215
-0.525963 0.594426 -3.98195 110 197 215
-0.529989 0.603572 -3.98159 108 195 213
-0.526601 0.615748 -3.97524 109 194 209
-0.530627 0.624894 -3.97488 102 193 209
-0.534653 0.634041 -3.97453 104 194 211
-0.591016 0.762096 -3.96951 227 237 243
-0.574715 0.844294 -3.93107 226 233 238
-0.608396 0.841327 -3.95466 226 233 237
-0.649491 0.835331 -3.98425 226 233 236
-0.646103 0.847507 -3.9779 225 232 236
-0.794622 1.04583 -4.01122 178 177 170
-0.855209 1.06425 -4.04572 175 173 166
-0.82452 1.29261 -3.94872 169 168 163
-0.802917 1.32302 -3.92405 172 170 166
-0.978539 1.42394 -4.00814 167 160 157
-0.997393 1.42703 -4.01976 167 160 157
-1.02366 1.42709 -4.03737 165 159 156
-1.02027 1.43926 -4.03102 164 157 154
-1.03913 1.44235 -4.04264 164 156 153
-1.05057 1.44847 -4.04827 161 152 150
-1.06201 1.45459 -4.0539 162 154 151
-1.07345 1.46071 -4.05953 159 151 148
0.393339 -1.85689 -4.19764 60 77 66
1.53016 -1.10114 -3.18188 158 157 154
1.51067 -1.07673 -3.18679 158 158 154
1.52147 -1.06152 -3.17446 152 150 147
1.38886 -1.01857 -3.24908 139 151 135
1.55893 -0.808811 -3.06476 127 133 113
0.33959 -0.562304 -3.80059 27 25 25
0.335564 -0.553158 -3.80023 26 25 25
0.2847 -0.358108 -3.7691 44 45 44
0.276649 -0.339815 -3.76839 213 212 212
0.280036 -0.32764 -3.76204 204 205 204
0.263933 -0.291053 -3.76061 54 55 55
0.255881 -0.272759 -3.75989 38 38 38
0.239777 -0.236172 -3.75846 43 24 21
0.224311 -0.220907 -3.76373 168 42 44
0.235113 -0.205703 -3.75139 204 41 43
0.219647 -0.190438 -3.75666 149 12 9
0.215621 -0.181291 -3.75631 149 17 14
0.214983 -0.159969 -3.7496 198 55 57
0.225785 -0.144766 -3.73726 203 47 48
0.214345 -0.138647 -3.74289 160 43 42
0.0853177 0.0352637 -3.7713 221 222 212
-0.203623 0.0359375 -3.96498 201 202 185
-0.222918 0.179135 -3.93002 126 157 150
-0.234357 0.185253 -3.93565 180 207 210
-0.253211 0.188343 -3.94727 179 200 205
-0.432661 0.417196 -3.99113 213 135 156
-0.436687 0.426342 -3.99077 212 138 157
-0.440713 0.435489 -3.99041 211 146 163
-0.444739 0.444636 -3.99005 206 151 164
-0.448765 0.453783 -3.98969 203 154 164
-0.445377 0.465958 -3.98335 210 160 168
-0.456817 0.472076 -3.98898 197 173 173
-0.453429 0.484251 -3.98263 207 183 180
-0.464869 0.49037 -3.98826 191 201 192
-0.468895 0.499516 -3.9879 184 205 192
-0.487748 0.502606 -3.99952 155 206 198
-0.469533 0.520839 -3.9812 191 217 197
-0.4958 0.5209 -3.9988 142 207 201
-0.477585 0.539132 -3.98048 181 220 198
-0.481611 0.548279 -3.98012 168 220 195
-0.500464 0.551369 -3.99174 132 206 198
-0.489663 0.566572 -3.9794 157 216 196
-0.508516 0.569662 -3.99102 128 205 206
-0.497714 0.584866 -3.97869 148 208 199
-0.516568 0.587956 -3.99031 129 201 208
-0.520594 0.597102 -3.98995 126 199 210
-0.52462 0.606249 -3.98959 123 197 209
-0.528646 0.615396 -3.98923 114 194 210
-0.525258 0.627571 -3.98288 117 193 206
-0.529284 0.636718 -3.98253 118 193 207
-0.53331 0.645865 -3.98217 117 191 206
-0.529922 0.65804 -3.97582 120 191 205
-0.526534 0.670215 -3.96947 128 192 206
-0.53056 0.679362 -3.96911 133 194 207
-0.534586 0.688509 -3.96876 129 198 210
-0.538612 0.697656 -3.9684 130 200 210
-0.575483 0.801298 -3.95847 227 235 236
-0.572095 0.813474 -3.95212 226 234 237
-0.569346 0.846971 -3.93907 226 233 238
-0.603027 0.844004 -3.96266 226 233 237
-0.651536 0.83498 -3.99824 225 233 236
-0.652174 0.856302 -3.99153 225 232 235
-0.6562 0.865448 -3.99117 224 232 235
-0.701761 1.00871 -3.97382 180 180 174
-0.849202 1.0456 -4.06042 178 176 170
-0.853228 1.05475 -4.06006 176 174 167
-0.872719 1.07916 -4.06498 178 176 169
-0.884159 1.08528 -4.07061 180 178 171
-0.965756 1.42964 -4.01015 167 160 157
-0.98461 1.43273 -4.02177 168 162 159
-0.99605 1.43885 -4.0274 168 162 159
-1.00749 1.44497 -4.03303 164 157 154
-1.01893 1.45109 -4.03866 162 155 152
-1.03778 1.45418 -4.05028 162 154 152
-1.06405 1.45424 -4.06789 163 157 154
-1.06066 1.46641 -4.06154 155 147 144
1.36884 -1.29605 -3.36785 150 152 148
1.53553 -1.09846 -3.18988 162 162 158
1.52006 -1.0832 -3.19515 168 170 166
1.52345 -1.07102 -3.1888 156 156 152
0.431615 -0.69689 -3.79636 225 49 43
0.415512 -0.660303 -3.79492 96 25 18
0.418899 -0.648128 -3.78858 92 38 26
0.414235 -0.617659 -3.78151 82 40 33
0.335631 -0.49869 -3.79446 28 27 27
0.36126 -0.477429 -3.77015 34 21 21
0.334355 -0.456046 -3.78105 216 216 215
0.337743 -0.443871 -3.7747 213 211 209
0.296207 -0.309759 -3.75771 198 198 195
0.273328 -0.297523 -3.76897 46 47 46
0.264638 -0.257907 -3.76154 43 41 40
0.233706 -0.227377 -3.77209 119 29 31
0.237094 -0.215202 -3.76574 197 49 55
0.22374 -0.145117 -3.75125 218 53 57
0.212301 -0.138999 -3.75688 163 45 42
0.150635 0.0408465 -3.7381 220 223 218
0.146609 0.0499932 -3.73774 217 218 212
0.0981006 0.040969 -3.77331 218 218 210
-0.224962 0.178783 -3.94401 136 162 157
-0.228988 0.18793 -3.94365 184 213 216
-0.431318 0.429019 -3.99877 219 133 157
-0.435344 0.438166 -3.99841 217 139 161
-0.43937 0.447313 -3.99805 213 143 162
-0.443396 0.456459 -3.9977 212 147 161
-0.440008 0.468635 -3.99135 217 149 162
-0.451448 0.474753 -3.99698 208 164 169
-0.455474 0.4839 -3.99662 204 176 176
-0.4595 0.493046 -3.99626 201 188 183
-0.46819 0.532662 -3.98884 202 215 193
-0.464802 0.544837 -3.98249 208 212 191
-0.476242 0.550956 -3.98812 188 220 192
-0.472854 0.563131 -3.98178 195 215 191
-0.484293 0.569249 -3.98741 178 214 189
-0.503147 0.572339 -3.99902 145 207 200
-0.507173 0.581486 -3.99867 152 208 201
-0.511199 0.590632 -3.99831 145 204 203
-0.515225 0.599779 -3.99795 142 200 203
-0.489596 0.62104 -3.97364 184 187 185
-0.523277 0.618073 -3.99723 130 194 204
-0.519889 0.630248 -3.99088 139 192 201
-0.531329 0.636366 -3.99652 126 191 204
-0.527941 0.648541 -3.99017 134 190 204
-0.531967 0.657688 -3.98981 129 193 207
-0.535993 0.666835 -3.98945 128 193 207
-0.540019 0.675982 -3.98909 128 195 208
-0.521803 0.694214 -3.97077 156 188 196
-0.540657 0.697304 -3.98239 131 193 204
-0.544683 0.706451 -3.98203 137 199 210
-0.556122 0.712569 -3.98766 150 206 218
-0.566726 0.81615 -3.96012 226 234 237
-0.570752 0.825297 -3.95976 226 234 238
-0.574778 0.834444 -3.9594 226 234 238
-0.578804 0.843591 -3.95904 226 233 238
-0.564615 0.87097 -3.94036 225 233 237
-0.657606 0.843775 -4.01187 225 232 236
-0.661632 0.852921 -4.01151 225 232 236
-0.703806 1.00836 -3.98781 179 179 174
-0.715246 1.01447 -3.99344 182 182 175
-0.76778 1.0146 -4.02865 180 179 173
-0.783884 1.05118 -4.02722 179 178 171
-0.843833 1.04828 -4.06842 179 177 171
-0.847859 1.05742 -4.06806 177 175 169
-0.878152 1.06663 -4.08531 176 175 168
-0.87879 1.08795 -4.07861 179 178 171
-0.776075 1.29178 -3.94148 175 174 170
-0.990681 1.44153 -4.0354 167 161 158
-0.994706 1.45067 -4.03504 167 160 156
-1.01356 1.45376 -4.04666 166 160 156
-1.01759 1.46291 -4.0463 162 154 151
-1.02903 1.46903 -4.05193 161 153 150
-1.06271 1.46606 -4.07553 163 156 154
1.41506 -1.02849 -3.25981 147 158 144
0.49865 -0.874059 -3.82314 234 46 39
0.44101 -0.70336 -3.80471 233 48 42
0.444398 -0.691185 -3.79837 230 46 42
0.420881 -0.657627 -3.80292 95 21 15
0.424269 -0.645451 -3.79658 83 17 11
0.420243 -0.636305 -3.79622 76 24 15
0.412191 -0.618011 -3.7955 66 30 22
0.404139 -0.599718 -3.79478 47 26 19
0.400113 -0.590571 -3.79442 38 25 19
0.348414 -0.492985 -3.79647 28 26 25
0.29755 -0.297936 -3.76535 209 211 208
0.257929 -0.22779 -3.76847 82 28 25
0.246489 -0.221672 -3.7741 160 39 42
0.242463 -0.212525 -3.77374 202 45 49
0.10347 0.0436457 -3.78131 221 219 211
-0.0501086 0.0348664 -3.88731 205 184 151
-0.20074 0.17837 -3.94039 104 135 124
-0.429975 0.440843 -4.00641 221 129 156
-0.434001 0.449989 -4.00605 215 132 155
-0.438027 0.459136 -4.0057 218 140 159
-0.450105 0.486576 -4.00462 211 163 167
-0.450743 0.507898 -3.99792 207 158 159
-0.454769 0.517045 -3.99756 215 182 178
-0.484226 0.623717 -3.98164 198 177 175
-0.517908 0.620749 -4.00523 149 195 199
-0.559003 0.614754 -4.03482 127 197 210
-0.518546 0.642071 -3.99853 156 184 194
-0.529985 0.64819 -4.00416 145 190 200
-0.534011 0.657336 -4.0038 140 191 204
-0.538037 0.666483 -4.00344 142 191 203
-0.534649 0.678658 -3.99709 146 193 203
-0.516434 0.696891 -3.97877 169 176 185
-0.52046 0.706038 -3.97841 165 178 186
-0.553943 0.821856 -3.96213 226 235 238
-0.561995 0.840149 -3.96142 226 234 238
-0.580849 0.843239 -3.97303 226 234 237
-0.574073 0.86759 -3.96034 225 233 237
-0.652237 0.846451 -4.01987 225 232 236
-0.648849 0.858627 -4.01352 225 232 235
-0.660289 0.864745 -4.01915 225 232 235
-0.698437 1.01103 -3.99581 182 182 177
-0.762411 1.01727 -4.03665 181 182 175
-0.81961 1.04786 -4.0648 179 178 172
-0.838464 1.05095 -4.07642 179 177 171
-0.849903 1.05707 -4.08205 177 175 170
-0.872783 1.06931 -4.09331 176 174 168
-0.881473 1.10892 -4.08589 180 179 172
-1.01963 1.46256 -4.06029 164 157 154
-1.0351 1.47782 -4.06556 163 154 152
0.488553 -0.856117 -3.83642 235 43 37
0.480501 -0.837824 -3.8357 233 43 37
0.479863 -0.816502 -3.82899 237 45 37
0.450405 -0.709831 -3.81307 237 47 41
0.453793 -0.697655 -3.80673 236 45 40
0.449767 -0.688508 -3.80637 230 49 43
0.453155 -0.676333 -3.80002 226 45 39
0.449129 -0.667186 -3.79966 211 49 41
0.441077 -0.648893 -3.79895 176 43 35
0.429638 -0.642775 -3.80458 115 27 20
0.425612 -0.633628 -3.80422 90 21 16
0.41756 -0.615334 -3.8035 67 18 11
0.413534 -0.606188 -3.80314 58 19 11
0.402094 -0.600069 -3.80877 42 23 17
0.398068 -0.590923 -3.80841 36 24 20
0.36861 -0.484251 -3.79249 33 26 27
0.306945 -0.304406 -3.77371 214 216 213
0.298893 -0.286112 -3.77299 215 220 217
0.298255 -0.26479 -3.76628 214 217 217
0.294229 -0.255643 -3.76593 221 221 221
0.270712 -0.222085 -3.77048 90 21 20
0.259272 -0.215966 -3.77611 175 38 43
0.26266 -0.203791 -3.76976 214 49 53
0.25122 -0.197673 -3.77539 204 39 39
0.257996 -0.173322 -3.7627 126 11 11
0.257358 -0.152 -3.75599 132 14 13
0.253332 -0.142854 -3.75564 136 13 12
0.241892 -0.136735 -3.76127 177 25 27
0.244642 -0.103238 -3.74821 211 71 69
0.105451 0.0341472 -3.79566 222 222 215
0.101425 0.0432939 -3.7953 222 220 211
-0.0595672 0.0314862 -3.90729 207 188 157
-0.187957 0.184075 -3.9424 100 138 128
-0.437322 0.492282 -4.00663 217 135 153
-0.479693 0.52893 -4.02281 202 210 192
-0.461478 0.547162 -4.00448 214 190 180
-0.487745 0.547223 -4.02209 193 214 194
-0.469529 0.565456 -4.00376 206 200 182
-0.474831 0.617247 -3.99 216 177 176
-0.478857 0.626393 -3.98964 208 174 174
-0.482883 0.63554 -3.98928 205 166 171
-0.479495 0.647715 -3.98293 215 158 170
-0.490935 0.653834 -3.98856 203 161 174
-0.487547 0.666009 -3.98221 209 149 168
-0.528642 0.660013 -4.0118 157 185 196
-0.503013 0.681274 -3.98749 195 159 177
-0.499625 0.693449 -3.98114 196 153 171
-0.533306 0.690482 -4.00474 157 189 198
-0.522505 0.705686 -3.9924 170 178 187
-0.53797 0.720951 -3.99767 186 208 216
-0.5581 0.766685 -3.99588 228 238 239
-0.582894 0.842887 -3.98702 225 234 237
-0.594333 0.849005 -3.99265 226 233 236
-0.56129 0.873295 -3.96235 226 233 237
-0.580144 0.876384 -3.97397 225 233 236
-0.647506 0.87045 -4.02116 224 232 236
-0.633119 1.01661 -3.96261 190 189 184
-0.689042 1.00456 -4.00417 182 183 178
-0.693068 1.01371 -4.00381 180 179 173
-0.745602 1.01383 -4.03902 180 181 175
-0.749628 1.02298 -4.03866 181 181 174
-0.814241 1.05054 -4.0728 180 178 172
-0.814879 1.07186 -4.0661 177 176 169
-0.86 1.07501 -4.09532 177 175 169
-0.87144 1.08113 -4.10096 176 175 168
-0.849836 1.11154 -4.07628 180 179 172
-0.883517 1.10857 -4.09988 180 179 172
-0.88013 1.12075 -4.09353 180 180 173
-1.01426 1.46523 -4.06829 165 160 157
-1.04455 1.47444 -4.08554 163 157 156
0.830627 -1.69791 -3.90099 79 87 76
0.48312 -0.868645 -3.85675 233 48 41
0.467017 -0.832057 -3.85532 236 46 42
0.459162 -0.694979 -3.81473 235 50 43
0.46255 -0.682803 -3.80838 235 49 42
0.458524 -0.673656 -3.80802 226 50 41
0.461912 -0.661481 -3.80167 225 54 43
0.450472 -0.655363 -3.8073 212 52 45
0.45386 -0.643188 -3.80096 217 58 47
0.449834 -0.634041 -3.8006 204 50 43
0.453222 -0.621866 -3.79425 211 58 47
0.449196 -0.612719 -3.79389 205 56 47
0.411489 -0.606539 -3.81713 57 22 13
0.407463 -0.597393 -3.81677 53 20 14
0.403437 -0.588246 -3.81641 45 23 18
0.399411 -0.579099 -3.81606 42 20 17
0.380558 -0.576009 -3.82767 37 21 21
0.361066 -0.551598 -3.83259 35 24 25
0.38267 -0.52119 -3.80792 33 26 25
0.37398 -0.481574 -3.80049 35 27 26
0.384781 -0.466371 -3.78816 60 39 35
0.361902 -0.454134 -3.79942 213 209 209
0.357238 -0.423665 -3.79236 191 187 185
0.348548 -0.38405 -3.78493 189 186 185
0.276081 -0.219408 -3.77848 115 23 25
0.264641 -0.21329 -3.78411 197 49 53
0.267391 -0.179792 -3.77106 120 14 9
0.263365 -0.170646 -3.7707 124 13 11
0.255313 -0.152352 -3.76998 126 11 9
0.251287 -0.143205 -3.76962 128 10 9
0.254675 -0.13103 -3.76328 132 13 12
0.243235 -0.124912 -3.76891 154 19 21
0.23921 -0.115765 -3.76855 182 46 45
0.235184 -0.106618 -3.76819 191 64 61
0.245985 -0.0914146 -3.75586 218 78 77
0.103406 0.0337954 -3.80965 225 224 215
0.114208 0.0489991 -3.79731 219 217 208
-0.190001 0.183723 -3.95639 101 137 127
-0.352908 0.235882 -4.04827 206 123 155
-0.34952 0.248057 -4.04192 212 121 157
-0.353546 0.257204 -4.04156 213 120 157
-0.357572 0.266351 -4.0412 217 121 157
-0.354184 0.278526 -4.03485 218 130 162
-0.365624 0.284644 -4.04048 222 123 155
-0.354822 0.299848 -4.02815 212 126 160
-0.366262 0.305966 -4.03378 222 120 153
-0.394443 0.369993 -4.03127 222 120 153
-0.391055 0.382169 -4.02492 223 124 155
-0.432591 0.51628 -4.00793 220 122 152
-0.436617 0.525427 -4.00757 214 121 148
-0.477514 0.638217 -3.99728 211 157 166
-0.482178 0.668686 -3.99022 216 142 164
-0.486842 0.699154 -3.98315 213 135 160
-0.490868 0.708301 -3.98279 207 142 165
-0.502308 0.714419 -3.98842 191 153 170
-0.584938 0.842535 -4.00101 226 234 236
-0.588964 0.851682 -4.00065 226 233 236
-0.600404 0.8578 -4.00628 225 233 236
-0.60443 0.866947 -4.00593 225 232 236
-0.687699 1.01639 -4.01181 181 180 174
-0.744259 1.02565 -4.04667 181 181 175
-0.783243 1.07448 -4.05649 177 176 170
-0.828363 1.07763 -4.08572 178 177 170
-0.878148 1.11125 -4.10788 179 177 171
-0.838572 1.41878 -3.97843 171 167 163
-1.01292 1.47706 -4.07594 164 159 157
1.38943 -1.00513 -3.30669 138 150 132
0.480438 -0.847674 -3.86404 228 48 41
0.476609 -0.719742 -3.8238 235 51 41
0.472583 -0.710595 -3.82344 234 50 42
0.468557 -0.701449 -3.82309 238 52 45
0.459867 -0.661833 -3.81566 221 51 43
0.455841 -0.652686 -3.81531 215 48 41
0.451816 -0.643539 -3.81495 211 49 43
0.455203 -0.631364 -3.8086 217 50 43
0.458591 -0.619189 -3.80225 226 57 47
0.454565 -0.610042 -3.80189 219 58 48
0.443126 -0.603924 -3.80752 197 53 46
0.446513 -0.591749 -3.80118 214 56 49
0.449901 -0.579573 -3.79483 216 58 52
0.445875 -0.570427 -3.79447 210 54 49
0.449263 -0.558251 -3.78812 214 58 52
0.383375 -0.488044 -3.80885 34 21 17
0.394176 -0.472841 -3.79652 56 18 14
0.39015 -0.463694 -3.79616 53 22 18
0.378073 -0.436254 -3.79508 57 34 32
0.357943 -0.39052 -3.79329 88 85 83
0.353917 -0.381373 -3.79293 199 195 194
0.368107 -0.353994 -3.77425 96 75 75
0.296278 -0.210674 -3.7745 136 24 24
0.292252 -0.201528 -3.77415 204 46 46
0.276786 -0.186263 -3.77942 136 10 8
0.265346 -0.180144 -3.78505 119 11 8
0.28695 -0.149737 -3.76038 180 34 29
0.256018 -0.119207 -3.77092 133 12 11
0.25538 -0.0978846 -3.76421 221 55 55
0.251354 -0.0887379 -3.76386 221 68 69
0.239915 -0.0826196 -3.76949 201 109 106
0.123603 0.0425291 -3.80567 222 223 215
-0.0414152 0.0398681 -3.9173 206 187 155
-0.177219 0.189429 -3.9584 145 177 173
-0.342875 0.20809 -4.06333 195 143 159
-0.339487 0.220265 -4.05698 189 141 161
-0.336099 0.23244 -4.05064 183 143 166
-0.340125 0.241587 -4.05028 187 136 164
-0.344151 0.250734 -4.04992 198 131 164
-0.348177 0.25988 -4.04956 202 130 164
-0.359617 0.265999 -4.05519 214 126 162
-0.356229 0.278174 -4.04884 210 135 167
-0.352841 0.290349 -4.0425 212 134 165
-0.364281 0.296468 -4.04813 214 124 157
-0.368306 0.305614 -4.04777 215 125 157
-0.372332 0.314761 -4.04741 214 122 154
-0.368945 0.326936 -4.04106 216 126 157
-0.37297 0.336083 -4.0407 216 130 160
-0.376996 0.34523 -4.04035 216 130 160
-0.366195 0.360434 -4.02801 212 153 180
-0.385048 0.363523 -4.03963 219 132 160
-0.389074 0.37267 -4.03927 222 133 160
-0.3931 0.381817 -4.03891 221 133 161
-0.382298 0.397021 -4.02658 221 145 171
-0.393738 0.403139 -4.03221 225 135 160
-0.397764 0.412286 -4.03185 223 133 158
-0.481473 0.701831 -3.99115 217 130 157
-0.485499 0.710978 -3.99079 208 135 159
-0.547362 0.772038 -4.01188 229 238 239
-0.571517 0.826919 -4.00973 226 234 237
-0.582957 0.833037 -4.01536 225 234 237
-0.591009 0.85133 -4.01464 225 233 235
-0.587621 0.863506 -4.0083 225 233 236
-0.708156 0.879016 -4.084 224 232 234
-0.749251 0.87302 -4.11358 227 232 234
-0.678304 1.00992 -4.02017 181 181 175
-0.746304 1.0253 -4.06065 182 183 177
-0.757744 1.03142 -4.06628 179 180 174
-0.755632 1.08624 -4.04653 181 180 174
-0.804141 1.07722 -4.0821 178 177 170
-0.660331 1.28704 -3.91539 176 176 171
-1.00416 1.49191 -4.07759 162 154 153
0.48134 -0.695743 -3.8251 229 56 45
0.473288 -0.67745 -3.82438 221 53 43
0.465236 -0.659156 -3.82366 222 50 42
0.456547 -0.619541 -3.81624 226 52 45
0.452521 -0.610394 -3.81588 220 50 44
0.455908 -0.598219 -3.80954 225 53 45
0.451883 -0.589072 -3.80918 226 55 48
0.443831 -0.570778 -3.80846 215 52 48
0.439805 -0.561632 -3.8081 209 52 48
0.450606 -0.546428 -3.79577 223 60 55
0.439167 -0.54031 -3.8014 213 52 50
0.435141 -0.531163 -3.80104 202 46 44
0.404209 -0.500633 -3.81158 88 18 14
0.400183 -0.491486 -3.81122 81 18 14
0.396157 -0.482339 -3.81087 67 15 14
0.399545 -0.470164 -3.80452 79 15 12
0.395519 -0.461017 -3.80416 66 15 12
0.394881 -0.439695 -3.79745 96 30 26
0.390855 -0.430548 -3.7971 72 26 24
0.359286 -0.378696 -3.80093 202 196 194
0.358648 -0.357374 -3.79423 76 71 70
0.354622 -0.348228 -3.79387 38 35 33
0.298259 -0.220173 -3.78885 82 15 12
0.286819 -0.214055 -3.79448 151 32 32
0.297621 -0.198851 -3.78215 217 43 45
0.285543 -0.171411 -3.78107 194 41 38
0.288931 -0.159235 -3.77472 203 46 43
0.284905 -0.150088 -3.77437 171 29 22
0.266051 -0.146999 -3.78598 125 20 14
0.276853 -0.131795 -3.77365 181 52 44
0.280241 -0.11962 -3.7673 187 32 30
0.260749 -0.0952079 -3.77221 227 52 52
0.260111 -0.0738859 -3.76551 224 76 74
0.125584 0.0330306 -3.82002 223 224 219
-0.185401 0.143404 -3.99179 106 124 99
-0.167824 0.182959 -3.96676 99 132 116
-0.175875 0.201252 -3.96604 181 206 207
-0.334118 0.222942 -4.06498 185 155 172
-0.323316 0.238145 -4.05265 161 167 186
-0.349583 0.238207 -4.07026 187 141 168
-0.353609 0.247353 -4.0699 192 128 159
-0.350221 0.259529 -4.06355 189 141 171
-0.354247 0.268675 -4.06319 196 136 170
-0.358273 0.277822 -4.06283 199 137 170
-0.354885 0.289998 -4.05649 199 140 169
-0.358911 0.299144 -4.05613 206 138 168
-0.362937 0.308291 -4.05577 207 134 165
-0.366963 0.317438 -4.05541 205 135 165
-0.370989 0.326585 -4.05505 206 133 163
-0.375015 0.335731 -4.05469 207 135 163
-0.379041 0.344878 -4.05433 208 136 164
-0.360826 0.36311 -4.03601 199 163 189
-0.379679 0.3662 -4.04763 213 144 168
-0.376291 0.378375 -4.04128 212 150 173
-0.387731 0.384494 -4.04691 215 144 167
-0.369516 0.402726 -4.02859 201 160 181
-0.395783 0.402787 -4.0462 222 141 163
-0.392395 0.414962 -4.03985 219 143 163
-0.381593 0.430166 -4.02751 212 152 173
-0.400447 0.433256 -4.03913 225 137 165
-0.397059 0.445431 -4.03278 224 137 165
-0.401085 0.454578 -4.03243 222 129 160
-0.397697 0.466753 -4.02608 222 134 163
-0.48013 0.713655 -3.99879 210 127 155
-0.566148 0.829595 -4.01773 226 235 237
-0.570174 0.838742 -4.01737 226 234 236
-0.582252 0.866182 -4.0163 225 233 236
-0.702787 0.881692 -4.092 225 232 235
-0.751296 0.872668 -4.12757 226 231 233
-0.725667 0.893929 -4.10326 225 232 234
-0.672934 1.01259 -4.02817 180 181 175
-0.722081 1.02489 -4.05704 176 177 172
-0.807066 1.35708 -4.00293 174 173 168
-0.865541 1.43031 -4.01767 172 170 167
-0.873593 1.44861 -4.01695 168 165 162
-0.991379 1.49762 -4.0796 163 156 154
1.47986 -1.28017 -3.36303 152 164 155
1.55611 -1.19507 -3.28339 139 145 137
1.56097 -1.10675 -3.25058 152 155 150
1.40356 -0.987601 -3.31635 132 142 128
0.47527 -0.686948 -3.83873 218 58 48
0.486071 -0.671745 -3.82639 215 67 52
0.474631 -0.665626 -3.83202 218 57 47
0.465942 -0.626011 -3.8246 225 51 43
0.457252 -0.586395 -3.81718 229 52 47
0.453226 -0.577248 -3.81682 227 50 45
0.4492 -0.568102 -3.81646 226 52 47
0.452588 -0.555926 -3.81011 228 53 49
0.448562 -0.54678 -3.80976 228 53 49
0.444536 -0.537633 -3.8094 224 49 48
0.44051 -0.528486 -3.80904 217 44 43
0.436484 -0.519339 -3.80868 213 47 46
0.432458 -0.510193 -3.80832 215 48 47
0.428432 -0.501046 -3.80796 214 51 49
0.43182 -0.488871 -3.80162 211 46 43
0.427794 -0.479724 -3.80126 205 45 41
0.423768 -0.470577 -3.8009 195 43 40
0.412328 -0.464459 -3.80653 172 41 40
0.408302 -0.455312 -3.80617 158 39 36
0.396863 -0.449194 -3.8118 98 22 18
0.392837 -0.440047 -3.81144 76 22 18
0.388811 -0.4309 -3.81108 69 16 13
0.392199 -0.418725 -3.80474 80 18 15
0.388173 -0.409578 -3.80438 77 25 21
0.384147 -0.400431 -3.80402 65 23 19
0.380121 -0.391285 -3.80366 66 33 30
0.383509 -0.379109 -3.79732 78 30 27
0.364017 -0.354698 -3.80223 43 34 31
0.359991 -0.345551 -3.80187 44 37 34
0.303628 -0.217496 -3.79685 124 26 24
0.299602 -0.208349 -3.79649 191 46 46
0.30299 -0.196174 -3.79015 230 49 50
0.301076 -0.132208 -3.77003 231 49 53
0.289636 -0.12609 -3.77566 221 43 47
0.26548 -0.0712091 -3.77351 229 63 61
0.268868 -0.0590339 -3.76716 226 81 76
0.130953 0.0357073 -3.82802 223 223 217
0.125651 0.0874981 -3.81425 207 196 169
0.00300415 0.0481888 -3.90971 211 192 159
-0.179394 0.124759 -4.0065 106 119 96
-0.180032 0.146081 -3.99979 106 125 100
-0.162454 0.185635 -3.97476 114 142 127
-0.18936 0.207019 -3.98566 199 214 223
-0.317309 0.2195 -4.06735 161 171 179
-0.306507 0.234704 -4.05502 131 182 197
-0.310533 0.243851 -4.05466 131 182 202
-0.314559 0.252997 -4.0543 131 179 203
-0.34824 0.25003 -4.0779 183 152 179
-0.344852 0.262205 -4.07155 182 155 183
-0.348878 0.271352 -4.07119 185 156 185
-0.352904 0.280499 -4.07083 193 155 183
-0.35693 0.289646 -4.07047 195 151 179
-0.390611 0.286678 -4.09407 207 138 164
-0.357568 0.310968 -4.06377 195 148 176
-0.361594 0.320115 -4.06341 190 147 176
-0.36562 0.329261 -4.06305 197 143 173
-0.369646 0.338408 -4.06269 198 147 176
-0.373672 0.347555 -4.06234 203 150 177
-0.377698 0.356702 -4.06198 207 158 182
-0.411379 0.353734 -4.08557 208 134 162
-0.378336 0.378024 -4.05527 202 158 180
-0.382362 0.38717 -4.05491 207 157 177
-0.386388 0.396317 -4.05455 207 155 172
-0.390414 0.405464 -4.0542 215 151 169
-0.372198 0.423696 -4.03587 195 164 180
-0.36881 0.435871 -4.02952 191 165 181
-0.38025 0.44199 -4.03515 203 155 173
-0.376862 0.454165 -4.02881 199 157 174
-0.380888 0.463312 -4.02845 200 158 174
-0.392328 0.46943 -4.03408 217 143 166
-0.403768 0.475548 -4.03971 225 139 169
-0.407794 0.484695 -4.03935 220 127 159
-0.404406 0.49687 -4.033 218 130 158
-0.415846 0.502989 -4.03863 222 122 158
-0.553365 0.835301 -4.01974 226 234 237
-0.572219 0.83839 -4.03136 225 234 237
-0.720298 0.896606 -4.11126 226 232 234
-0.709298 1.03059 -4.05905 184 184 178
-0.728152 1.03368 -4.07067 178 179 173
-0.793403 1.08257 -4.0981 178 178 171
-0.739835 1.2987 -3.98984 174 174 169
-0.852758 1.43602 -4.01968 171 170 166
1.61485 -1.09505 -3.223 164 161 160
0.48275 -0.629452 -3.82697 210 67 53
0.471311 -0.623334 -3.8326 220 58 50
0.474699 -0.611159 -3.82625 217 62 51
0.470673 -0.602012 -3.8259 226 59 52
0.462621 -0.583718 -3.82518 226 53 46
0.458595 -0.574572 -3.82482 229 53 47
0.445879 -0.525809 -3.81704 225 46 44
0.441853 -0.516663 -3.81668 227 50 48
0.437827 -0.507516 -3.81632 228 49 47
0.441215 -0.495341 -3.80998 227 49 45
0.437189 -0.486194 -3.80962 225 47 43
0.433163 -0.477047 -3.80926 222 46 41
0.421723 -0.470929 -3.81489 211 51 50
0.425111 -0.458754 -3.80854 218 51 48
0.428499 -0.446578 -3.80219 222 48 44
0.417059 -0.44046 -3.80783 210 50 50
0.420447 -0.428285 -3.80148 211 46 43
0.416421 -0.419138 -3.80112 208 50 47
0.412395 -0.409991 -3.80076 206 54 50
0.415783 -0.397816 -3.79441 202 49 44
0.389516 -0.397755 -3.81202 91 26 22
0.38549 -0.388608 -3.81166 82 29 25
0.388878 -0.376433 -3.80532 86 18 15
0.3768 -0.348992 -3.80424 58 26 21
0.372774 -0.339846 -3.80388 68 34 28
0.376162 -0.32767 -3.79754 81 34 28
0.308997 -0.214819 -3.80485 131 26 27
0.304971 -0.205673 -3.80449 196 41 43
0.278901 -0.0868259 -3.78223 240 49 48
0.285677 -0.0624754 -3.76953 236 51 50
0.274237 -0.0563571 -3.77516 225 68 64
0.277625 -0.0441819 -3.76882 218 85 79
0.147762 0.0322658 -3.83039 218 220 215
0.143736 0.0414125 -3.83003 224 223 216
0.000959417 0.0478371 -3.9237 208 190 158
-0.149672 0.191341 -3.97677 120 144 129
-0.301138 0.237381 -4.06302 118 182 200
-0.301776 0.258703 -4.05631 104 185 211
-0.298388 0.270878 -4.04997 100 191 219
-0.309828 0.276996 -4.0556 107 191 217
-0.30644 0.289171 -4.04925 103 195 222
-0.310466 0.298318 -4.04889 102 193 218
-0.314492 0.307465 -4.04853 104 191 215
-0.385242 0.289355 -4.10207 196 142 168
-0.322544 0.325759 -4.04782 110 187 211
-0.32657 0.334905 -4.04746 113 184 209
-0.330596 0.344052 -4.0471 113 184 209
-0.334622 0.353199 -4.04674 114 182 207
-0.338648 0.362346 -4.04638 119 181 207
-0.342674 0.371492 -4.04602 126 177 202
-0.3467 0.380639 -4.04566 132 176 201
-0.380381 0.377672 -4.06926 197 161 184
-0.376993 0.389847 -4.06291 182 166 185
-0.358777 0.408079 -4.04459 161 177 195
-0.362803 0.417226 -4.04423 169 176 191
-0.366829 0.426373 -4.04387 176 175 190
-0.363441 0.438548 -4.03753 170 175 189
-0.374881 0.444666 -4.04316 187 168 182
-0.371493 0.456842 -4.03681 186 170 183
-0.382933 0.46296 -4.04244 196 159 172
-0.372131 0.478164 -4.0301 191 182 191
-0.398399 0.478225 -4.04771 212 151 169
-0.402425 0.487372 -4.04735 216 141 164
-0.406451 0.496519 -4.04699 221 143 167
-0.403063 0.508694 -4.04065 218 138 159
-0.407089 0.517841 -4.04029 219 139 159
-0.411115 0.526987 -4.03993 223 139 165
-0.41514 0.536134 -4.03957 219 134 159
-0.419166 0.545281 -4.03921 220 138 162
-0.400951 0.563513 -4.02089 217 155 163
-0.419804 0.566603 -4.03251 217 133 156
-0.427856 0.584896 -4.03179 219 129 157
-0.431882 0.594043 -4.03143 223 131 160
-0.559436 0.844096 -4.03337 226 234 236
-0.662196 1.01795 -4.04417 182 183 177
-0.830405 1.12189 -4.12227 180 179 173
-0.860698 1.1311 -4.13952 177 176 170
-0.764561 1.42937 -3.97522 172 170 167
-0.854803 1.43567 -4.03367 171 169 165
1.57573 -1.11055 -3.26694 151 156 150
0.472016 -0.590188 -3.83354 224 65 57
0.46799 -0.581042 -3.83318 225 58 51
0.471378 -0.568866 -3.82683 221 62 55
0.4593 -0.541426 -3.82576 230 51 46
0.455274 -0.532279 -3.8254 227 48 43
0.438532 -0.47437 -3.81726 231 51 47
0.434506 -0.465224 -3.8169 230 51 46
0.43048 -0.456077 -3.81654 231 50 46
0.426454 -0.44693 -3.81618 226 49 47
0.429842 -0.434755 -3.80984 224 46 41
0.425816 -0.425608 -3.80948 228 49 47
0.42179 -0.416461 -3.80912 225 48 45
0.425178 -0.404286 -3.80277 220 46 41
0.421152 -0.395139 -3.80241 219 46 41
0.417126 -0.385992 -3.80206 223 52 48
0.420514 -0.373817 -3.79571 220 51 46
0.416488 -0.36467 -3.79535 219 54 49
0.412462 -0.355524 -3.79499 220 56 53
0.401023 -0.349405 -3.80062 187 56 53
0.389583 -0.343287 -3.80625 130 35 31
0.378143 -0.337169 -3.81188 82 28 25
0.377505 -0.315847 -3.80518 88 23 20
0.372841 -0.285378 -3.79811 88 31 25
0.372203 -0.264056 -3.79141 95 30 23
0.368177 -0.254909 -3.79105 81 29 22
0.329194 -0.206086 -3.80088 181 43 42
0.317754 -0.199967 -3.80651 225 52 56
0.317116 -0.178645 -3.7998 237 47 48
0.308426 -0.13903 -3.79238 236 51 53
0.3044 -0.129883 -3.79202 230 46 50
0.300374 -0.120736 -3.79166 224 44 46
0.28702 -0.0506519 -3.77717 236 54 52
0.290408 -0.0384766 -3.77083 232 68 66
0.153131 0.0349425 -3.83839 221 221 217
0.149105 0.0440893 -3.83803 224 222 214
0.147829 0.0867333 -3.82462 208 198 170
0.18107 0.229808 -3.75444 119 137 107
-0.142388 0.130051 -4.00489 107 124 98
-0.167182 0.206254 -3.99603 206 216 216
-0.296407 0.261379 -4.06431 99 187 216
-0.297045 0.282701 -4.05761 97 194 226
-0.293657 0.294877 -4.05126 93 195 226
-0.297683 0.304023 -4.0509 90 193 223
-0.301709 0.31317 -4.05054 88 193 222
-0.305735 0.322317 -4.05019 88 192 220
-0.309761 0.331464 -4.04983 86 193 222
-0.313787 0.34061 -4.04947 85 192 221
-0.317813 0.349757 -4.04911 85 191 220
-0.321839 0.358904 -4.04875 86 191 220
-0.325865 0.368051 -4.04839 84 190 217
-0.329891 0.377198 -4.04803 92 188 215
-0.333917 0.386344 -4.04768 102 185 213
-0.337943 0.395491 -4.04732 106 186 212
-0.334555 0.407666 -4.04097 109 188 212
-0.338581 0.416813 -4.04061 116 191 212
-0.342607 0.42596 -4.04025 126 193 212
-0.354046 0.432078 -4.04588 145 188 204
-0.358072 0.441225 -4.04553 151 185 200
-0.354684 0.4534 -4.03918 148 186 200
-0.366124 0.459518 -4.04481 168 181 192
-0.362736 0.471694 -4.03846 168 186 195
-0.366762 0.48084 -4.0381 175 191 196
-0.370788 0.489987 -4.03774 188 191 193
-0.374814 0.499134 -4.03739 196 193 192
-0.401081 0.499195 -4.05499 210 157 169
-0.397694 0.511371 -4.04865 210 154 163
-0.40172 0.520517 -4.04829 210 151 160
-0.405745 0.529664 -4.04793 217 154 166
-0.409771 0.538811 -4.04757 213 146 159
-0.413797 0.547958 -4.04721 219 150 165
-0.410409 0.560133 -4.04087 213 151 161
-0.414435 0.56928 -4.04051 215 145 158
-0.418461 0.578426 -4.04015 218 145 161
-0.429901 0.584545 -4.04578 223 141 165
-0.426513 0.59672 -4.03943 225 148 168
-0.430539 0.605867 -4.03907 224 146 168
-0.434565 0.615013 -4.03872 225 144 167
-0.431177 0.627189 -4.03237 219 142 165
-0.442617 0.633307 -4.038 221 140 165
-0.446643 0.642454 -4.03764 221 136 164
-0.443255 0.654629 -4.03129 225 141 164
-0.454695 0.660747 -4.03692 223 139 165
-0.554067 0.846772 -4.04137 226 234 236
-0.723749 0.87458 -4.14594 225 232 235
-0.705534 0.892812 -4.12762 227 233 235
-0.69856 1.03595 -4.07505 183 183 177
1.26398 -1.04317 -3.46611 130 159 119
0.464669 -0.538749 -3.83376 222 54 47
0.460643 -0.529603 -3.8334 230 53 48
0.456617 -0.520456 -3.83304 231 50 46
0.460005 -0.508281 -3.82669 229 53 47
0.423133 -0.404638 -3.81676 227 49 46
0.419108 -0.395491 -3.8164 227 47 45
0.415082 -0.386344 -3.81605 227 52 50
0.418469 -0.374169 -3.8097 225 47 44
0.414444 -0.365022 -3.80934 233 55 52
0.410418 -0.355875 -3.80898 226 54 52
0.413805 -0.3437 -3.80263 227 57 52
0.40978 -0.334553 -3.80228 223 56 52
0.405754 -0.325407 -3.80192 220 60 55
0.409141 -0.313231 -3.79557 217 59 52
0.405116 -0.304085 -3.79521 221 63 56
0.40109 -0.294938 -3.79485 223 64 58
0.374822 -0.294877 -3.81246 89 20 18
0.370796 -0.28573 -3.8121 80 21 16
0.374184 -0.273555 -3.80576 100 21 17
0.370158 -0.264408 -3.8054 84 26 20
0.334563 -0.203409 -3.80888 188 46 44
0.333287 -0.160765 -3.79547 165 20 17
0.305743 -0.11806 -3.79966 188 29 26
0.301717 -0.108913 -3.7993 202 34 34
0.297691 -0.099766 -3.79894 233 46 46
0.292389 -0.0479752 -3.78518 236 53 53
0.1585 0.0376192 -3.84639 222 222 215
0.18413 0.05888 -3.82208 214 212 204
-0.144433 0.129699 -4.01888 106 124 99
-0.148459 0.138846 -4.01852 109 132 104
-0.157787 0.199784 -4.00439 188 204 195
-0.161813 0.208931 -4.00404 212 217 219
-0.288288 0.297553 -4.05926 88 193 226
-0.324522 0.379874 -4.05604 83 191 220
-0.328548 0.389021 -4.05568 87 188 217
-0.317746 0.404225 -4.04334 85 191 218
-0.329186 0.410343 -4.04897 95 191 217
-0.325798 0.422518 -4.04262 97 194 218
-0.337237 0.428637 -4.04825 105 193 216
-0.33385 0.440812 -4.04191 103 192 215
-0.345289 0.44693 -4.04754 121 195 215
-0.349315 0.456077 -4.04718 130 192 209
-0.353341 0.465224 -4.04682 134 193 206
-0.357367 0.47437 -4.04646 148 196 205
-0.361393 0.483517 -4.0461 158 200 204
-0.365419 0.492664 -4.04575 164 199 199
-0.362031 0.504839 -4.0394 169 210 207
-0.373471 0.510957 -4.04503 189 206 197
-0.370083 0.523133 -4.03868 190 210 197
-0.374109 0.53228 -4.03832 199 212 194
-0.378135 0.541426 -4.03796 204 211 190
-0.382161 0.550573 -4.03761 208 205 185
-0.386187 0.55972 -4.03725 214 200 180
-0.40504 0.56281 -4.04887 209 167 162
-0.394239 0.578013 -4.03653 218 197 178
-0.413092 0.581103 -4.04815 212 157 161
-0.417118 0.59025 -4.04779 215 161 166
-0.421144 0.599397 -4.04743 220 158 168
-0.42517 0.608543 -4.04707 216 156 168
-0.429196 0.61769 -4.04672 219 150 166
-0.425808 0.629865 -4.04037 210 151 164
-0.42242 0.642041 -4.03402 205 153 163
-0.43386 0.648159 -4.03965 211 147 163
-0.437886 0.657306 -4.03929 215 149 165
-0.441912 0.666452 -4.03893 217 148 166
-0.446576 0.696921 -4.03187 216 152 171
-0.450602 0.706068 -4.03151 219 152 174
-0.454628 0.715215 -4.03115 217 151 173
-0.458654 0.724362 -4.0308 217 158 179
-0.477507 0.727451 -4.04241 218 166 185
-0.548698 0.849449 -4.04937 226 234 236
-0.574965 0.84951 -4.06698 225 234 237
-0.689165 1.02948 -4.08341 186 186 180
-0.712045 1.04171 -4.09467 183 183 177
-0.811022 1.46531 -4.01937 170 168 164
-0.856781 1.48978 -4.04189 167 163 159
0.638444 -0.521236 -3.72378 71 78 45
0.453296 -0.478164 -3.83362 228 53 46
0.44927 -0.469017 -3.83326 232 54 47
0.445244 -0.45987 -3.8329 237 54 47
