ply
format ascii 1.0
element face 0
property list uchar int vertex_indices
element vertex 1267
property float x
property float y
property float z
property uchar diffuse_red
property uchar diffuse_green
property uchar diffuse_blue
end_header
-1.68976 -0.312818 -3.61917 25 17 14
-1.76273 -0.259244 -3.51052 28 18 13
-1.79019 -0.225529 -3.46459 28 17 13
-1.78921 -0.204225 -3.45787 29 18 14
-1.54571 0.167639 -3.61576 27 18 14
-1.64477 0.221732 -3.47518 25 17 14
-1.59101 0.317801 -3.50485 24 16 13
-1.15231 0.832674 -3.84697 169 168 161
-0.70321 1.32128 -4.2115 182 182 176
-0.60629 1.40938 -4.29661 181 182 175
-0.42755 1.63564 -4.42987 178 180 175
-0.131315 1.76717 -4.74123 179 182 177
-1.59074 -1.22435 -4.06224 15 16 12
-1.5874 -1.21494 -4.0628 13 15 11
-1.57385 -1.04699 -4.01686 17 15 12
-1.57287 -1.02569 -4.01014 16 14 12
-1.54421 -0.907796 -4.00116 18 16 12
-1.54087 -0.898386 -4.00172 19 15 11
-1.91081 -0.552231 -3.42317 26 16 12
-1.82587 -0.534966 -3.52005 25 16 12
-1.81684 -0.528038 -3.52845 25 16 12
-1.80213 -0.523592 -3.54469 25 16 11
-1.86411 -0.420483 -3.43099 23 16 13
-1.76522 -0.289773 -3.50266 28 16 13
-1.76757 -0.27788 -3.49538 28 17 13
-1.78267 -0.227826 -3.45841 28 17 13
-1.7807 -0.185219 -3.44497 30 18 14
-1.6932 -0.0495448 -3.50095 30 19 15
-1.68986 -0.0401342 -3.50151 30 19 14
-1.68926 0.035669 -3.47406 29 19 15
-1.68494 0.0663829 -3.4679 27 17 14
-1.68161 0.0757935 -3.46846 26 17 13
-1.63725 0.219434 -3.469 24 16 13
-1.45693 0.542801 -3.56809 32 21 16
-1.18893 0.817039 -3.79207 174 170 164
-0.668618 1.33977 -4.23051 180 182 175
-0.59642 1.39519 -4.29771 184 186 178
-0.542272 1.43676 -4.34811 175 176 169
-1.56633 -1.04929 -4.01068 16 14 12
-1.56535 -1.02799 -4.00395 15 13 11
-1.70714 -0.705321 -3.71158 26 16 12
-1.89761 -0.557011 -3.42483 26 16 12
-1.90565 -0.542635 -3.40971 26 16 12
-1.80932 -0.530336 -3.52227 25 15 11
-1.8003 -0.523407 -3.53067 25 15 11
-1.86228 -0.420298 -3.41697 23 15 13
-1.76006 -0.280178 -3.4892 28 17 13
-1.77652 -0.196928 -3.43823 29 18 14
-1.71061 -0.214823 -3.52503 30 18 14
-1.71746 -0.0488413 -3.45501 31 19 15
-1.68136 -0.0211286 -3.48861 29 18 14
-1.63602 0.143815 -3.48243 24 16 14
-1.63209 0.229029 -3.45554 23 16 13
-1.62875 0.23844 -3.4561 23 16 13
-1.58303 0.348884 -3.47065 22 15 13
-1.41233 0.589519 -3.58878 40 23 16
-1.18141 0.814741 -3.78589 165 162 155
-1.17239 0.82167 -3.79429 168 165 159
-1.16905 0.83108 -3.79485 168 166 160
-0.605969 1.40034 -4.26801 177 178 171
-1.8075 -0.530151 -3.50825 25 16 11
-1.79847 -0.523223 -3.51665 25 15 11
-1.84338 -0.427561 -3.42647 23 15 12
-1.76195 -0.234904 -3.45389 28 17 13
-1.76901 -0.199225 -3.43205 29 18 14
-1.77136 -0.187333 -3.42476 29 17 13
-1.69052 -0.070479 -3.47963 30 19 14
-1.67012 -0.0685155 -3.50371 30 19 15
-1.68954 -0.0491756 -3.47291 31 19 15
-1.67423 0.0310734 -3.4617 28 18 14
-1.50841 0.480297 -3.49637 24 16 13
-1.4978 0.584332 -3.4706 52 39 32
-1.49447 0.593743 -3.47116 44 32 25
-1.40148 0.596632 -3.58316 42 26 18
-1.36615 0.733344 -3.57531 48 29 24
-1.36517 0.754648 -3.56858 46 30 25
-1.3585 0.773469 -3.5697 46 29 25
-1.16821 0.809961 -3.78755 159 156 148
-1.15251 0.835711 -3.79707 168 165 159
-1.14348 0.842639 -3.80547 168 165 158
-1.14015 0.852049 -3.80602 170 167 160
-0.701272 1.18212 -4.21705 177 179 173
-0.791095 1.37344 -4.0367 172 172 167
-0.733225 1.36992 -4.10838 178 178 172
-0.615132 1.35099 -4.25903 178 179 172
-1.52226 -0.990493 -4.01007 19 15 12
-1.51892 -0.981082 -4.01063 19 15 12
-1.78172 -0.388289 -3.47069 22 14 11
-1.75443 -0.237202 -3.44771 28 17 13
-1.75678 -0.225309 -3.44043 28 17 13
-1.683 -0.0727768 -3.47345 30 18 14
-1.68476 0.0149193 -3.43872 29 19 14
-1.49661 0.193608 -3.60111 26 16 13
-1.4819 0.198054 -3.61735 27 16 13
-1.4189 0.431354 -3.60724 26 17 14
-1.41556 0.440764 -3.6078 27 18 15
-1.48695 0.591445 -3.46497 53 42 34
-1.36022 0.63394 -3.6033 61 47 40
-1.36531 0.712225 -3.56801 46 26 21
-1.36197 0.721636 -3.56856 46 26 20
-1.35864 0.731046 -3.56912 44 25 19
-1.36099 0.742939 -3.56184 43 26 20
-1.35196 0.749867 -3.57024 41 24 18
-1.34863 0.759278 -3.5708 41 24 19
-1.34529 0.768689 -3.57136 41 24 20
-1.35 0.792474 -3.5568 40 26 21
-1.34666 0.801885 -3.55735 39 26 21
-1.15166 0.814592 -3.78977 158 154 148
-1.14499 0.833413 -3.79088 165 161 155
-1.14734 0.845306 -3.7836 169 166 159
-1.13832 0.852234 -3.792 170 166 160
-0.685713 1.16545 -4.22599 184 185 179
-0.688066 1.17734 -4.21871 180 181 175
-0.679041 1.18427 -4.22711 178 179 174
-0.807316 1.35977 -4.00588 174 173 168
-1.77989 -0.388105 -3.45667 23 16 13
-1.71377 -0.275697 -3.49529 28 17 13
-1.4157 0.398342 -3.60722 24 17 13
-1.41805 0.410235 -3.59994 27 19 15
-1.41471 0.419645 -3.6005 27 19 15
-1.38349 0.655947 -3.55063 44 27 20
-1.35681 0.731231 -3.5551 43 23 18
-1.35582 0.752534 -3.54838 43 25 20
-1.34915 0.771356 -3.5495 42 26 20
-1.34581 0.780766 -3.55006 42 27 22
-1.34248 0.790177 -3.55061 39 25 20
-1.31776 0.822854 -3.56853 43 31 26
-1.13747 0.831115 -3.7847 159 154 148
-1.13983 0.843008 -3.77742 165 160 154
-1.1308 0.849936 -3.78582 166 161 154
-0.808824 1.35055 -3.99129 173 172 166
-1.53314 -1.17937 -4.03469 14 15 12
-1.49623 -0.945553 -3.99266 18 15 11
-1.49525 -0.92425 -3.98594 19 15 12
-1.78708 -0.394848 -3.43424 23 15 11
-1.76335 -0.383474 -3.45888 24 16 13
-1.46019 0.212279 -3.6061 26 16 12
-1.47469 0.338136 -3.54168 26 16 13
-1.47037 0.36885 -3.53552 26 15 11
-1.45917 0.548688 -3.4823 27 16 11
-1.385 0.646721 -3.53605 40 24 16
-1.34732 0.77154 -3.53547 42 27 22
-1.34399 0.780951 -3.53603 41 27 22
-1.34634 0.792844 -3.52875 38 25 20
-1.31593 0.823039 -3.55451 38 26 21
-1.13231 0.84071 -3.77124 162 158 151
-1.12564 0.859531 -3.77236 167 163 156
-0.67872 1.17523 -4.1985 180 181 175
-0.570809 1.31287 -4.27857 186 188 182
-0.10858 1.70881 -4.69351 176 179 174
-1.51228 -1.14403 -4.03074 18 17 13
-1.49637 -0.987975 -3.99208 18 15 12
-1.49303 -0.978565 -3.99264 19 15 12
-1.4897 -0.969154 -3.9932 19 15 12
-1.48636 -0.959744 -3.99376 19 15 12
-1.48871 -0.947851 -3.98648 19 15 12
-1.48538 -0.93844 -3.98704 18 15 12
-1.48773 -0.926547 -3.97975 18 15 12
-1.8814 -0.591766 -3.37656 25 16 11
-1.82058 -0.531376 -3.42808 25 16 12
-1.81567 -0.424859 -3.39446 23 16 13
-1.75583 -0.385772 -3.4527 23 16 12
-1.64184 -0.305116 -3.56134 25 17 14
-1.67123 0.00109784 -3.41178 29 18 14
-1.6679 0.0105084 -3.41233 29 19 14
-1.66456 0.0199189 -3.41289 29 19 14
-1.46717 0.335839 -3.5355 25 15 12
-1.2747 0.545241 -3.69173 160 163 169
-1.36863 0.836154 -3.46936 37 24 19
-1.11478 0.866644 -3.76673 165 160 153
-0.657473 1.15607 -4.21529 183 184 178
-0.654137 1.16548 -4.21585 183 184 178
-0.569964 1.29175 -4.27127 182 184 178
-0.293147 1.44261 -4.55183 178 178 172
-0.30923 1.47136 -4.52159 178 180 173
-1.50142 -1.13691 -4.02512 19 17 14
-1.4865 -1.00217 -3.99318 20 15 12
-1.50023 -0.985308 -3.97022 16 15 12
-1.47983 -0.983345 -3.9943 20 16 12
-1.48218 -0.971452 -3.98702 19 16 12
-1.47884 -0.962042 -3.98758 19 16 12
-1.48119 -0.950149 -3.9803 19 15 12
-1.47786 -0.940738 -3.98085 19 15 12
-1.48021 -0.928845 -3.97357 17 14 12
-1.47688 -0.919435 -3.97413 18 15 12
-1.74519 -0.508962 -3.49526 25 15 11
-1.81384 -0.424674 -3.38044 23 16 13
-1.71889 -0.379178 -3.479 25 16 14
-1.70199 -0.201823 -3.43362 31 19 15
-1.66038 0.00821063 -3.40615 29 18 14
-1.65704 0.0176212 -3.40671 29 18 14
-1.47988 0.146775 -3.57415 28 17 13
-1.47655 0.156185 -3.57471 27 16 12
-1.54657 0.273669 -3.44588 24 16 13
-1.40649 0.353807 -3.58644 28 19 15
-1.31701 0.532088 -3.62898 128 101 111
-0.897172 0.826999 -4.02993 218 226 229
-0.747261 1.12017 -4.10326 176 177 171
-0.738236 1.1271 -4.11166 177 177 171
-0.661333 1.15874 -4.19342 183 184 178
-1.82838 -1.15625 -3.61852 24 16 12
-1.49626 -1.12732 -4.01166 20 18 14
-1.49292 -1.11791 -4.01222 19 17 13
-1.478 -0.98316 -3.98028 18 15 12
-1.48604 -0.968785 -3.96516 17 15 12
-1.47171 -0.90984 -3.96067 16 14 11
-1.46837 -0.900429 -3.96123 16 14 11
-1.47073 -0.888536 -3.95395 16 13 10
-1.46739 -0.879126 -3.9545 16 15 11
-1.46974 -0.867233 -3.94722 18 16 12
-1.63215 -0.676835 -3.67895 23 15 12
-1.64208 -0.074855 -3.4431 29 18 13
-1.47237 0.144477 -3.56796 28 17 13
-1.46903 0.153887 -3.56852 27 16 12
-1.37263 0.796398 -3.44692 34 22 17
-1.3379 0.857308 -3.46652 40 26 22
-0.922417 0.806399 -3.99071 218 223 227
-0.919081 0.81581 -3.99127 222 227 230
-0.927122 0.830185 -3.97615 220 226 229
-0.556298 1.32035 -4.24491 186 187 181
-0.496461 1.35943 -4.30315 183 185 179
-0.487437 1.36636 -4.31154 179 180 175
-0.4841 1.37577 -4.3121 180 181 176
-0.466051 1.38963 -4.3289 182 183 178
-1.82322 -1.14666 -3.60505 24 16 12
-1.46479 -0.98794 -3.98194 20 16 12
-1.46714 -0.976048 -3.97466 18 16 12
-1.45987 -0.881423 -3.94832 16 14 11
-1.80881 -0.457501 -3.3664 24 16 13
-1.62361 -0.342723 -3.54896 23 16 13
-1.72541 -0.222238 -3.38038 28 17 13
-1.65929 -0.10983 -3.419 30 18 14
-1.63456 -0.0771528 -3.43692 29 18 13
-1.63123 -0.0677422 -3.43748 29 18 14
-1.46819 0.132769 -3.56122 29 18 14
-1.46485 0.142179 -3.56178 28 17 14
-1.46151 0.15159 -3.56234 28 17 14
-1.44248 0.186749 -3.57242 26 17 13
-1.43914 0.19616 -3.57298 24 16 12
-1.37105 0.351175 -3.59816 24 17 14
-1.42243 0.558318 -3.45869 28 18 13
-1.36512 0.794101 -3.44074 34 22 17
-1.33274 0.866903 -3.45305 41 27 22
-0.564864 1.3468 -4.20848 181 182 176
-0.460886 1.39922 -4.31544 181 183 178
-1.81236 -1.13955 -3.59943 25 17 13
-1.77725 -1.13314 -3.63975 23 15 11
-1.47455 -1.11309 -4.00041 22 18 15
-1.45629 -0.968935 -3.96903 18 16 13
-1.70167 -0.753194 -3.59043 25 16 12
-1.75758 -0.707068 -3.5053 26 17 12
-1.83799 -0.563315 -3.35407 25 16 12
-1.63927 -0.595698 -3.60777 26 16 12
-1.80129 -0.459799 -3.36022 23 16 13
-1.75283 -0.415748 -3.40278 23 15 12
-1.61943 -0.354432 -3.54222 23 16 13
-1.72123 -0.233946 -3.37363 28 17 13
-1.43496 0.184452 -3.56624 27 18 13
-1.43163 0.193862 -3.5668 24 16 11
-1.39096 0.697698 -3.42897 39 25 18
-1.38762 0.707108 -3.42953 37 23 17
-1.35525 0.77991 -3.44184 36 22 18
-1.35426 0.801214 -3.43512 36 24 19
-1.47135 -1.14611 -4.00039 18 17 14
-1.47371 -1.13421 -3.99311 19 18 15
-1.70318 -0.76242 -3.57585 26 17 12
-1.7022 -0.741117 -3.56912 26 17 13
-1.74437 -0.711848 -3.50696 26 17 12
-1.83047 -0.565613 -3.34789 26 16 12
-1.80438 -0.566132 -3.37981 26 16 12
-1.73082 -0.543903 -3.46101 26 16 12
-1.73728 -0.432421 -3.41172 24 16 13
-1.60956 -0.368622 -3.54332 23 15 12
-1.71469 -0.257547 -3.37418 27 16 12
-1.71705 -0.245655 -3.36689 27 17 13
-1.71371 -0.236244 -3.36745 28 17 13
-1.61324 -0.00842742 -3.40495 29 18 14
-1.60991 0.000983119 -3.40551 28 18 14
-1.56183 0.0995344 -3.42734 24 17 14
-1.44982 0.137584 -3.54942 29 18 14
-1.44648 0.146994 -3.54998 28 17 14
-1.42411 0.191564 -3.56061 24 15 11
-1.38232 0.216795 -3.60205 27 16 14
-1.47039 0.320423 -3.45643 28 17 13
-1.45136 0.355583 -3.46651 25 18 15
-1.36539 0.709256 -3.43959 38 23 18
-0.759539 1.32505 -3.94746 175 174 168
-0.31399 1.67394 -4.35961 180 183 178
-1.81439 -1.13669 -3.56355 26 18 14
-1.45716 -1.12958 -3.99533 20 17 15
-1.45952 -1.11769 -3.98805 19 18 15
-1.61487 -0.96297 -3.74162 21 15 12
-1.44793 -0.992351 -3.95555 18 15 12
-1.69233 -0.755308 -3.57022 25 16 12
-1.69468 -0.743415 -3.56294 26 17 13
-1.69135 -0.734004 -3.5635 26 17 13
-1.81962 -0.5585 -3.34227 26 16 12
-1.79353 -0.559019 -3.37419 26 16 12
-1.71996 -0.53679 -3.45539 26 16 12
-1.78292 -0.454984 -3.34842 22 15 12
-1.68716 -0.203382 -3.37135 30 18 14
-1.41877 0.0163569 -3.61606 28 19 14
-1.44384 0.353285 -3.46033 25 18 15
-0.992989 0.754194 -3.85958 215 223 227
-0.865274 0.817993 -3.99118 220 228 231
-0.00416347 1.74619 -4.69336 177 181 176
-1.80354 -1.12958 -3.55792 25 17 13
-1.76274 -1.12565 -3.60609 24 16 12
-1.46299 -1.16952 -3.98691 16 17 15
-1.66775 -0.765052 -3.58756 25 16 12
-1.68148 -0.748195 -3.5646 25 16 12
-1.67814 -0.738784 -3.56516 25 16 12
-1.81976 -0.600922 -3.34169 25 16 11
-1.8121 -0.560798 -3.33609 26 16 12
-1.71813 -0.536605 -3.44137 26 16 12
-1.58785 -0.354397 -3.53207 22 15 13
-1.70869 -0.269071 -3.35341 26 15 11
-1.43632 0.350987 -3.45415 25 17 15
-0.728036 1.23721 -3.98607 178 178 173
-0.589329 1.35054 -4.11263 176 177 171
-1.7364 -1.2231 -3.65816 24 16 12
-1.76091 -1.12547 -3.59206 25 17 13
-1.73482 -1.12599 -3.62399 23 15 12
-1.46313 -1.21194 -3.98634 15 16 13
-1.66258 -0.755457 -3.5741 25 16 12
-1.66493 -0.743564 -3.56682 25 16 12
-1.77516 -0.554204 -3.36239 27 17 12
-1.78222 -0.518525 -3.34054 26 16 13
-1.70728 -0.529492 -3.43575 26 16 12
-1.69313 -0.285744 -3.36235 28 17 13
-1.70117 -0.271369 -3.34723 27 16 12
-1.43962 0.114352 -3.52192 26 16 13
-1.42547 0.3581 -3.44852 22 15 13
-1.31777 0.365435 -3.57677 21 17 16
-1.32012 0.377328 -3.56949 19 16 14
-1.33382 0.709291 -3.42944 48 32 26
-1.00601 0.707511 -3.82875 212 218 220
-1.00268 0.716921 -3.8293 213 218 219
-0.698747 1.20368 -4.01798 178 178 173
-0.709141 1.22994 -3.99557 178 179 173
-0.563974 1.2318 -4.17142 179 181 175
-0.459611 1.22972 -4.29911 182 185 179
-0.264191 1.50303 -4.43517 179 181 176
-1.72888 -1.22539 -3.65198 24 16 12
-1.72554 -1.21598 -3.65254 24 16 12
-1.78517 -1.12477 -3.54612 25 17 13
-1.72396 -1.11888 -3.61836 23 15 11
-1.8226 -0.804177 -3.38143 26 16 12
-1.84437 -0.772944 -3.34335 26 15 11
-1.74001 -0.77502 -3.47104 25 15 11
-1.73667 -0.765609 -3.47159 25 16 11
-1.65506 -0.757755 -3.56792 25 16 12
-1.65742 -0.745862 -3.56064 25 16 12
-1.65408 -0.736452 -3.5612 25 17 12
-1.6735 -0.717112 -3.53039 25 17 12
-1.80472 -0.605518 -3.32933 26 16 12
-1.76764 -0.556502 -3.3562 27 17 12
-1.75135 -0.454949 -3.33827 23 15 13
-1.69562 -0.316273 -3.3545 27 16 12
-1.6913 -0.285559 -3.34833 28 17 13
-1.68796 -0.276149 -3.34889 28 17 13
-1.68463 -0.266738 -3.34945 29 17 14
-1.68129 -0.257328 -3.35001 29 17 14
-1.68364 -0.245435 -3.34273 28 17 13
-1.65794 -0.191454 -3.35392 30 18 14
-1.43544 0.102643 -3.51518 28 17 13
-1.37599 0.19623 -3.55269 25 17 14
-1.41599 0.398409 -3.4289 20 15 13
-1.40499 0.447944 -3.42385 22 16 13
-0.998495 0.705213 -3.82256 213 218 221
-0.69123 1.20138 -4.0118 180 180 175
-0.562145 1.23198 -4.1574 181 183 178
-0.321216 1.48543 -4.35618 179 181 177
-1.71803 -1.21828 -3.64636 24 16 12
-1.73313 -1.16823 -3.60939 25 16 13
-1.77432 -1.11765 -3.5405 25 17 13
-1.7472 -0.781763 -3.44861 25 16 12
-1.66992 -0.804623 -3.5511 26 17 13
-1.83626 -0.699439 -3.30972 27 17 12
-1.64656 -0.738749 -3.55502 25 16 12
-1.63754 -0.731821 -3.56341 25 16 12
-1.73814 -0.459729 -3.33993 24 16 14
-1.66398 -0.361697 -3.39368 25 15 11
-1.68378 -0.287857 -3.34215 28 17 13
-1.68044 -0.278447 -3.34271 28 17 13
-1.6828 -0.266554 -3.33543 28 17 13
-1.67946 -0.257143 -3.33599 29 18 14
-1.65572 -0.245769 -3.36063 30 18 14
-1.6514 -0.215055 -3.35446 30 18 14
-1.42318 0.391665 -3.40648 19 14 13
-1.40847 0.396111 -3.42272 20 14 12
-1.41082 0.408004 -3.41543 20 15 13
-0.698426 1.19463 -3.98938 181 182 176
-0.325847 1.5971 -4.29287 176 179 174
-1.53322 -1.59133 -3.9936 22 18 15
-1.74229 -1.21758 -3.60041 24 15 12
-1.70717 -1.21117 -3.64073 24 16 12
-1.673 -0.910956 -3.57069 21 15 12
-1.79854 -0.801844 -3.37747 26 16 12
-1.73733 -0.795954 -3.44971 25 16 12
-1.73969 -0.784061 -3.44243 25 16 12
-1.66809 -0.804439 -3.53708 26 16 12
-1.66475 -0.795028 -3.53764 26 17 13
-1.66082 -0.709814 -3.51075 25 17 12
-1.65748 -0.700404 -3.51131 26 17 13
-1.78537 -0.579399 -3.3108 25 16 11
-1.67862 -0.278262 -3.32869 28 17 13
-1.67528 -0.268852 -3.32925 28 17 13
-1.65526 -0.212388 -3.3326 29 17 13
-1.56617 0.0203929 -3.35441 28 18 14
-1.34646 0.0657773 -3.60474 31 19 17
-1.41374 0.116869 -3.50393 25 15 12
-1.4104 0.126279 -3.50449 26 16 13
-1.40706 0.13569 -3.50505 26 17 14
-1.39762 0.403224 -3.41709 19 15 13
-0.942059 0.780348 -3.83091 217 223 229
-0.863786 0.778791 -3.92668 221 226 231
-0.768834 0.824288 -4.02524 223 230 233
-0.733718 0.830697 -4.06556 225 230 233
-0.634022 1.16751 -4.0616 180 181 175
-0.250278 1.43471 -4.42895 180 180 174
-1.51569 -1.5654 -3.98909 21 17 15
-1.76595 -1.14107 -3.52702 24 16 12
-1.72883 -0.776948 -3.43681 25 16 12
-1.6539 -0.787915 -3.53202 26 17 13
-1.65232 -0.690809 -3.49784 26 17 13
-1.6711 -0.28056 -3.32251 28 17 13
-1.66776 -0.271149 -3.32307 28 17 13
-1.64069 -0.250365 -3.34826 28 17 13
-1.38585 -0.198571 -3.63891 29 19 16
-1.35463 0.0377302 -3.58904 29 18 15
-1.40622 0.114571 -3.49775 27 17 14
-1.3901 0.400926 -3.41091 18 14 13
-1.30161 0.557904 -3.46018 46 30 25
-0.935525 0.756747 -3.83145 218 224 230
-0.898057 0.751263 -3.87906 218 226 230
-0.862941 0.757673 -3.91938 219 227 232
-0.843908 0.792832 -3.92946 220 228 231
-0.817817 0.792314 -3.96138 221 229 231
-0.803104 0.796759 -3.97762 221 230 233
-0.785055 0.810616 -3.99442 221 230 233
-0.770341 0.815062 -4.01066 222 231 233
-0.761316 0.82199 -4.01906 223 231 234
-0.720512 0.825917 -4.06722 225 231 233
-0.711487 0.832845 -4.07562 224 231 234
-0.627912 0.883306 -4.1585 225 232 236
-0.626505 1.16522 -4.05542 180 180 174
-0.376974 1.16499 -4.35896 188 192 184
-0.189557 1.76779 -4.36281 179 182 178
-0.102646 1.82766 -4.44624 180 184 181
-1.73294 -1.21969 -3.58021 25 16 12
-1.71408 -0.999727 -3.52138 24 16 13
-1.72132 -0.779246 -3.43063 25 16 12
-1.71798 -0.769835 -3.43119 25 16 12
-1.66025 -0.273447 -3.31688 28 17 13
-1.63317 -0.252662 -3.34208 29 18 14
-1.55683 0.0182798 -3.33421 27 18 14
-1.35576 -0.0259955 -3.59519 28 18 13
-1.35811 -0.0141026 -3.58791 29 19 14
-1.37257 0.42686 -3.40641 20 16 14
-1.36667 0.554681 -3.36607 31 20 16
-1.26898 0.533784 -3.49264 39 29 27
-0.925655 0.742556 -3.83255 219 227 231
-0.864449 0.748447 -3.9048 219 227 230
-0.857776 0.767268 -3.90592 220 227 231
-0.834038 0.778642 -3.93056 222 228 231
-0.825014 0.78557 -3.93896 221 228 231
-0.760471 0.800871 -4.01176 224 230 234
-0.768513 0.815246 -3.99664 222 231 234
-0.731044 0.809763 -4.04424 226 230 232
-0.712995 0.823619 -4.06104 225 231 233
-0.719069 0.880601 -4.03247 223 231 233
-0.715733 0.890012 -4.03303 223 231 233
-0.652174 0.884009 -4.11255 224 232 235
-0.674505 1.15454 -3.98484 181 181 175
-0.633701 1.15847 -4.033 181 181 176
-0.653505 1.23231 -3.98147 181 182 176
-0.378482 1.15577 -4.34438 189 192 184
-0.471641 1.33768 -4.16346 180 182 175
-0.0358891 1.78864 -4.52575 185 191 185
0.00119328 1.83766 -4.55263 184 191 186
-1.49261 -1.58437 -3.99185 22 19 16
-1.48928 -1.57496 -3.99241 22 18 16
-1.47593 -1.53732 -3.99465 22 19 15
-1.7164 -1.21506 -3.58243 25 16 12
-1.75327 -1.13377 -3.50737 24 16 12
-1.80486 -1.05693 -3.41608 25 16 13
-1.72188 -1.08227 -3.52641 23 15 11
-1.40468 -1.18809 -3.95148 16 14 11
-1.40135 -1.17868 -3.95204 17 15 13
-1.39801 -1.16927 -3.9526 18 16 14
-1.48741 -0.717338 -3.67589 21 14 11
-1.36604 0.403259 -3.40695 18 14 12
-1.35582 0.561794 -3.36045 33 21 17
-1.26146 0.531487 -3.48646 43 33 33
-1.24675 0.535932 -3.5027 52 41 43
-1.19222 0.523002 -3.57382 192 113 134
-0.925793 0.700134 -3.83198 224 225 229
-0.918138 0.740258 -3.82637 219 226 231
-0.883022 0.746668 -3.86669 220 227 231
-0.851243 0.743666 -3.90646 220 228 233
-0.853595 0.755559 -3.89918 221 227 232
-0.850259 0.76497 -3.89973 221 227 231
-0.846923 0.77438 -3.90029 221 228 232
-0.834562 0.790719 -3.90925 220 228 232
-0.764331 0.803538 -3.9899 222 231 234
-0.760995 0.812948 -3.99045 222 231 234
-0.699789 0.818839 -4.0627 224 232 234
-0.711552 0.878303 -4.02629 222 231 233
-0.708216 0.887714 -4.02685 223 231 233
-0.644657 0.881712 -4.10637 224 232 235
-0.546368 0.936618 -4.20549 228 235 237
-0.809802 1.1385 -3.81009 170 168 162
-0.655013 1.22309 -3.96689 179 180 174
-0.382342 1.15843 -4.32251 191 194 186
-0.250307 1.25294 -4.44795 180 183 176
-0.252659 1.26484 -4.44067 176 178 171
-0.0882089 1.74726 -4.46133 182 188 182
-0.0615204 1.82254 -4.4658 182 187 183
-0.00600284 1.83092 -4.53021 184 191 186
0.0030219 1.83784 -4.53861 185 191 186
0.0177353 1.84229 -4.55485 186 193 188
-1.49079 -1.58418 -3.97783 23 18 16
-1.48176 -1.57726 -3.98623 22 19 16
-1.47979 -1.53465 -3.97278 23 19 17
-1.70888 -1.21736 -3.57624 24 16 12
-1.7177 -1.09398 -3.51967 24 16 12
-1.39383 -1.18098 -3.94586 18 15 13
-1.47087 -0.712708 -3.67811 20 14 11
-1.72194 -0.494485 -3.29167 26 16 13
-1.61245 -0.25974 -3.33756 28 17 13
-1.32678 0.0828544 -3.55761 29 20 16
-1.36323 0.424747 -3.3862 21 16 13
-1.2616 0.489064 -3.48588 26 20 21
-1.18235 0.508811 -3.57492 197 121 141
-0.91494 0.707247 -3.82636 223 227 231
-0.91062 0.737961 -3.82019 220 226 231
-0.907284 0.747371 -3.82075 220 226 232
-0.877857 0.756263 -3.85323 220 227 231
-0.846078 0.753262 -3.89299 221 228 232
-0.842742 0.762672 -3.89355 221 227 232
-0.839406 0.772083 -3.89411 221 228 232
-0.83607 0.781493 -3.89467 220 228 232
-0.798602 0.77601 -3.94227 222 230 232
-0.789577 0.782938 -3.95067 222 231 233
-0.747789 0.808168 -3.99211 223 231 235
-0.692272 0.816541 -4.05652 224 232 234
-0.677558 0.820987 -4.07276 222 232 236
-0.700699 0.885416 -4.02067 222 231 233
-0.646165 0.872486 -4.09179 224 232 234
-0.642828 0.881896 -4.09235 225 232 235
-0.807974 1.13869 -3.79606 178 175 170
-0.32166 1.1764 -4.37345 190 196 187
-0.324012 1.18829 -4.36617 193 197 189
-0.0540031 1.82024 -4.45962 183 188 184
0.00151445 1.82862 -4.52402 185 191 187
0.0195639 1.84247 -4.54082 187 193 188
-1.47993 -1.57707 -3.97221 23 19 17
-1.47228 -1.53695 -3.9666 22 18 15
-1.46325 -1.53002 -3.975 21 17 15
-1.4452 -1.51616 -3.9918 20 19 14
-1.7349 -1.12896 -3.49557 23 16 11
-1.70684 -1.08687 -3.51404 24 16 12
-1.70351 -1.07746 -3.5146 24 15 11
-1.70017 -1.06805 -3.51516 24 16 12
-1.6935 -1.04923 -3.51628 24 16 12
-1.75116 -0.915404 -3.39642 25 16 12
-1.69209 -0.767318 -3.4132 25 16 12
-1.46001 -0.705595 -3.67249 20 14 11
-1.72973 -0.577032 -3.29669 25 15 11
-1.64714 -0.547874 -3.3863 26 16 12
-1.61455 -0.344769 -3.35043 28 17 12
-1.63769 -0.28034 -3.29834 28 18 14
-1.63436 -0.27093 -3.2989 28 17 13
-1.60827 -0.271449 -3.33082 28 17 13
-1.32653 -0.0140676 -3.57776 28 19 14
-1.27196 0.288107 -3.53181 21 16 16
-1.33864 0.415002 -3.40354 23 18 16
-1.25742 0.477356 -3.47914 25 20 21
-1.29959 0.506625 -3.41697 37 26 21
-1.1815 0.487692 -3.56763 197 111 133
-0.877996 0.713841 -3.85266 224 227 232
-0.873676 0.744554 -3.84649 221 228 232
-0.87034 0.753965 -3.84705 221 227 231
-0.838561 0.750964 -3.88681 222 228 233
-0.835225 0.760374 -3.88737 222 228 232
-0.837577 0.772267 -3.88009 221 228 232
-0.800109 0.766784 -3.92769 223 231 233
-0.791084 0.773712 -3.93609 222 231 232
-0.679066 0.811761 -4.05818 224 233 236
-0.681418 0.823654 -4.05089 225 233 236
-0.677099 0.854368 -4.04473 225 232 235
-0.647672 0.86326 -4.07721 225 232 234
-0.638647 0.870188 -4.08561 224 232 234
-0.641 0.882081 -4.07833 225 232 235
-0.241944 1.22953 -4.43447 181 186 179
-0.235272 1.24835 -4.43559 180 184 177
0.00903174 1.82632 -4.51784 185 192 187
-1.48379 -1.57441 -3.95034 22 18 15
-1.46142 -1.52983 -3.96098 22 18 15
-1.72071 -1.11243 -3.4905 24 16 12
-1.75386 -1.07624 -3.43674 25 16 13
-1.69265 -1.07035 -3.50898 24 16 12
-1.68932 -1.06094 -3.50954 24 16 12
-1.6291 -1.07635 -3.58851 23 15 11
-1.62007 -1.06942 -3.59691 25 16 13
-1.77559 -0.729898 -3.28157 26 16 12
-1.45583 -0.717303 -3.66575 21 15 12
-1.44916 -0.698482 -3.66687 20 14 11
-1.63962 -0.550172 -3.38011 26 16 12
-1.30644 0.130276 -3.53236 27 19 15
-1.29643 0.158508 -3.53404 25 17 15
-1.24853 0.441862 -3.48696 22 19 20
-1.29306 0.483024 -3.41752 32 21 17
-1.29541 0.494917 -3.41023 34 22 19
-1.1783 0.454681 -3.56761 193 102 127
-1.19575 0.516627 -3.52336 187 92 117
-1.19242 0.526038 -3.52392 177 82 107
-1.16534 0.546823 -3.54912 189 135 149
-0.888914 0.752186 -3.80895 221 227 232
-0.885578 0.761597 -3.80951 220 226 230
-0.88793 0.77349 -3.80222 219 226 230
-0.839085 0.763041 -3.86551 221 228 231
-0.83006 0.76997 -3.87391 221 228 232
-0.815347 0.774415 -3.89015 222 229 232
-0.766501 0.763967 -3.95343 223 232 234
-0.768854 0.77586 -3.94615 223 231 234
-0.759829 0.782788 -3.95455 223 231 235
-0.688614 0.81691 -4.02847 226 233 234
-0.685278 0.826321 -4.02903 225 233 235
-0.663893 0.849588 -4.04639 225 232 235
-0.666245 0.861481 -4.03911 224 232 235
-0.640155 0.860962 -4.07103 225 232 235
-0.63113 0.86789 -4.07943 225 232 235
-0.567571 0.861888 -4.15895 226 232 234
-0.750766 1.10482 -3.84587 178 178 173
-0.265821 1.17573 -4.40925 169 174 168
-0.243452 1.2203 -4.41989 183 188 181
-0.231091 1.23664 -4.42885 184 189 183
-1.45057 -1.52272 -3.95536 22 18 15
-1.7587 -1.09487 -3.4216 24 15 12
-1.74301 -1.06912 -3.43112 24 16 13
-1.61824 -1.06924 -3.58288 24 15 12
-1.44164 -0.70078 -3.66069 20 14 11
-1.37492 -0.512569 -3.67186 24 17 14
-1.53459 -0.388564 -3.4316 23 16 13
-1.59422 -0.297348 -3.32518 27 16 12
-1.59657 -0.285455 -3.3179 28 17 13
-1.59323 -0.276044 -3.31846 28 17 13
-1.53849 -0.158672 -3.3414 30 19 15
-1.53515 -0.149261 -3.34196 30 20 15
-1.39131 0.200892 -3.38673 21 15 13
-1.3346 0.360872 -3.39623 23 17 16
-1.33695 0.372764 -3.38895 21 16 15
-1.25102 0.411332 -3.47911 22 18 19
-1.15881 0.523221 -3.54966 190 130 142
-1.16685 0.537597 -3.53453 197 122 141
-0.87806 0.759299 -3.80332 221 227 231
-0.761336 0.773562 -3.93997 223 232 234
-0.758 0.782973 -3.94053 223 231 235
-0.673056 0.800237 -4.03741 225 233 236
-0.675408 0.81213 -4.03013 226 234 236
-0.658728 0.859183 -4.03293 225 232 235
-0.632637 0.858664 -4.06485 225 232 235
-0.63499 0.870557 -4.05757 225 232 235
-0.620277 0.875003 -4.07381 225 232 235
-0.634354 1.26147 -3.91303 173 173 168
-0.282042 1.16206 -4.37843 168 173 166
-0.273017 1.16899 -4.38683 169 174 169
-0.235935 1.218 -4.41371 179 184 178
-0.221221 1.22245 -4.42995 175 181 175
-0.217885 1.23186 -4.4305 179 185 179
0.0274024 1.83113 -4.50604 187 192 188
0.0421158 1.83558 -4.52228 188 194 189
-1.74785 -1.08776 -3.41598 24 15 12
-1.65132 -0.945158 -3.48036 22 16 13
-1.61051 -0.941231 -3.52852 21 15 12
-1.52027 -0.871949 -3.61252 21 16 13
-1.68267 -0.681551 -3.34424 27 17 13
-1.44041 -0.776399 -3.67411 22 15 12
-1.52476 -0.71786 -3.54978 25 17 13
-1.43079 -0.693667 -3.65506 21 15 12
-1.58905 -0.287752 -3.31172 27 17 13
-1.5914 -0.27586 -3.30443 28 17 13
-1.53332 -0.149077 -3.32794 31 20 15
-1.30475 0.0880386 -3.51776 29 19 15
-1.33277 0.361056 -3.38221 22 17 15
-1.24449 0.387731 -3.47965 23 18 19
-1.23547 0.39466 -3.48805 24 21 22
-1.24351 0.409035 -3.47292 23 19 20
-1.23448 0.415963 -3.48132 24 22 23
-1.15561 0.49021 -3.54964 195 125 144
-1.15228 0.49962 -3.5502 185 128 142
-1.15463 0.511513 -3.54292 184 130 141
-0.739106 0.77571 -3.95003 223 233 235
-0.676916 0.802904 -4.01555 226 234 235
-0.66926 0.843029 -4.00994 224 233 236
-0.662588 0.86185 -4.01106 225 232 235
-0.62512 0.856366 -4.05867 225 233 235
-0.627473 0.868259 -4.05138 225 233 236
-0.612759 0.872705 -4.06762 224 232 235
-0.213704 1.22015 -4.42376 173 179 173
-0.210368 1.22956 -4.42432 175 182 176
0.0433467 1.75996 -4.53571 184 190 185
0.0202063 1.82439 -4.48362 187 192 188
-1.62442 -1.2819 -3.62207 23 15 11
-1.67463 -1.23826 -3.54478 24 15 12
-1.737 -1.08065 -3.41035 24 15 12
-1.56904 -0.77362 -3.50048 25 16 12
-1.42956 -0.769286 -3.66849 23 15 13
-1.42759 -0.726679 -3.65505 23 15 12
-1.41994 -0.686554 -3.64944 21 15 12
-1.3542 -0.519647 -3.66734 25 18 14
-1.30668 -0.181793 -3.59954 29 20 16
-1.39296 0.149244 -3.37157 24 15 14
-1.16379 0.462163 -3.53394 198 100 126
-1.16046 0.471573 -3.5345 202 112 135
-1.15712 0.480984 -3.53506 206 121 143
-1.15947 0.492877 -3.52778 202 121 140
-1.15614 0.502287 -3.52834 201 129 145
-1.08727 0.548302 -3.59497 86 177 193
-1.08394 0.557713 -3.59553 96 177 191
-1.05785 0.557194 -3.62746 164 151 164
-1.04215 0.582943 -3.63697 189 126 142
-0.668415 0.82191 -4.00265 225 233 236
-0.614267 0.863479 -4.05304 225 233 235
-0.452805 0.966883 -4.21096 229 235 238
-0.206187 1.21785 -4.41758 170 175 170
-0.208539 1.22975 -4.4103 177 183 177
-0.199514 1.23668 -4.4187 179 185 179
-0.196178 1.24609 -4.41926 180 185 179
0.00886432 1.60213 -4.53626 182 187 180
0.050864 1.75766 -4.52953 185 191 186
-1.44705 -1.56478 -3.92674 25 20 17
-1.43135 -1.53903 -3.93625 24 19 17
-1.41664 -1.53458 -3.95249 23 19 16
-1.6169 -1.2842 -3.61589 24 16 12
-1.61357 -1.27479 -3.61645 24 16 12
-1.40908 -0.679442 -3.64382 22 15 12
-1.34668 -0.521945 -3.66116 26 18 15
-1.34334 -0.512534 -3.66172 27 19 16
-1.35272 -0.149857 -3.51551 26 18 15
-1.34938 -0.140446 -3.51607 28 19 16
-1.29404 0.0527291 -3.51157 27 18 15
-1.29302 0.389138 -3.38776 25 20 18
-1.14922 0.424186 -3.5496 202 111 132
-1.14588 0.433597 -3.55016 201 121 136
-1.14823 0.44549 -3.54288 200 116 136
-1.15059 0.457382 -3.5356 197 114 135
-1.14156 0.464311 -3.544 187 129 142
-1.11547 0.463792 -3.57592 143 182 178
-1.08408 0.51529 -3.59496 79 175 194
-1.08074 0.524701 -3.59552 85 177 195
-1.08309 0.536594 -3.58823 87 176 193
-1.07976 0.546004 -3.58879 95 177 190
-1.02424 0.554377 -3.6532 204 103 131
-0.727407 0.761704 -3.93711 225 234 236
-0.684636 0.808238 -3.97182 225 233 235
-0.652857 0.805237 -4.01159 226 234 236
-0.648537 0.835951 -4.00542 225 233 236
-0.615774 0.854253 -4.03846 225 233 235
-0.612438 0.863664 -4.03902 225 232 235
-0.533182 0.883411 -4.12806 226 234 237
-0.212014 1.17792 -4.40917 162 164 160
-0.192981 1.21307 -4.41924 165 171 167
-0.201022 1.22745 -4.40412 176 181 176
-1.42953 -1.53884 -3.92223 23 18 16
-1.38008 -1.47349 -3.95807 19 18 13
-1.37675 -1.46408 -3.95862 20 20 16
-1.6037 -1.28898 -3.61755 24 16 12
-1.60605 -1.27709 -3.61026 24 16 12
-1.63056 -1.17946 -3.54417 24 16 12
-1.67312 -1.09569 -3.46127 24 15 12
-1.54733 -0.759394 -3.48924 26 16 12
-1.34425 -0.445957 -3.61969 28 18 14
-1.33853 -0.133334 -3.51045 28 18 15
-1.28986 0.0410208 -3.50483 27 18 14
-1.31022 0.354163 -3.36366 24 18 16
-1.31257 0.366056 -3.35638 21 18 15
-1.14268 0.400585 -3.55015 199 107 126
-1.13935 0.409996 -3.5507 199 120 132
-1.1417 0.421888 -3.54342 200 118 133
-1.13836 0.431299 -3.54398 199 130 140
-1.11796 0.433262 -3.56806 182 187 165
-1.12031 0.445155 -3.56078 173 180 165
-1.07754 0.491689 -3.5955 72 168 187
-1.07421 0.5011 -3.59606 85 175 191
-1.07087 0.51051 -3.59662 94 176 190
-1.07322 0.522403 -3.58933 97 178 192
-1.06989 0.531814 -3.58989 105 175 187
-1.01005 0.570901 -3.64813 205 104 130
-0.992001 0.584757 -3.66493 196 133 147
-0.734603 0.754961 -3.91469 224 234 235
-0.725579 0.761889 -3.92309 225 234 237
-0.716554 0.768817 -3.93148 225 234 237
-0.586486 0.820723 -4.07037 225 234 237
-0.617282 0.845027 -4.02388 226 232 236
-0.441106 0.952877 -4.19804 228 233 234
-0.610957 1.23345 -3.88719 175 176 170
-0.181144 1.24149 -4.4069 178 184 178
-1.38257 -1.50402 -3.95021 20 19 15
-1.37924 -1.49461 -3.95077 19 17 13
-1.38159 -1.48271 -3.94348 20 19 15
-1.37257 -1.47578 -3.95188 19 18 13
-1.60187 -1.28879 -3.60352 24 16 12
-1.71406 -1.14204 -3.41254 23 15 11
-1.64755 -1.08413 -3.47189 24 16 12
-1.54315 -0.771102 -3.4825 26 17 12
-1.29277 -0.250114 -3.59332 31 20 17
-1.33101 -0.135631 -3.50426 28 18 15
-1.2323 0.179881 -3.50703 23 18 16
-1.14753 0.381948 -3.53501 201 92 122
-1.14419 0.391359 -3.53556 205 99 128
-1.12948 0.395805 -3.55181 196 127 132
-1.10574 0.407179 -3.57645 176 192 170
-1.06532 0.465606 -3.60388 77 168 187
-1.06767 0.477499 -3.5966 79 168 185
-1.06434 0.486909 -3.59716 84 170 185
-1.06669 0.498802 -3.58988 88 173 188
-1.02922 0.493318 -3.63748 193 152 153
-1.01254 0.540371 -3.64027 200 104 129
-1.00018 0.55671 -3.64923 210 116 141
-0.985467 0.561156 -3.66547 197 134 149
-0.993509 0.575531 -3.65035 204 129 148
-0.984484 0.582459 -3.65875 187 138 150
-0.940344 0.595797 -3.70747 76 168 190
-0.718061 0.759591 -3.9169 225 234 237
-0.697659 0.761555 -3.94098 227 234 238
-0.551046 1.36042 -3.89667 174 174 170
-1.37506 -1.50631 -3.94403 21 19 15
-1.37172 -1.4969 -3.94459 20 18 14
-1.37407 -1.48501 -3.9373 19 17 13
-1.35504 -1.44985 -3.94738 19 19 16
-1.60004 -1.28861 -3.5895 24 16 12
-1.64003 -1.08643 -3.46571 24 16 12
-1.61942 -0.954164 -3.44161 22 16 13
-1.50877 -0.882919 -3.54969 22 15 12
-1.49975 -0.87599 -3.55809 23 16 13
-1.53798 -0.761507 -3.46903 27 17 13
-1.49128 -0.62976 -3.47686 25 17 13
-1.27366 -0.127074 -3.55464 30 20 17
-1.14433 0.348937 -3.53499 204 92 126
-1.12962 0.353383 -3.55123 199 111 132
-1.13197 0.365275 -3.54395 200 105 130
-1.10489 0.38606 -3.56915 187 193 167
-1.09587 0.392988 -3.57755 158 192 177
-1.05879 0.442005 -3.60442 84 173 190
-1.05545 0.451415 -3.60498 97 178 188
-1.05211 0.460826 -3.60554 106 179 185
-1.05447 0.472718 -3.59826 106 175 186
-1.03407 0.474682 -3.62234 166 176 170
-0.990311 0.542519 -3.65033 211 125 146
-0.986975 0.55193 -3.65089 206 125 147
-0.983639 0.56134 -3.65145 200 132 150
-0.905752 0.614284 -3.72649 123 182 195
-0.428039 0.905675 -4.19912 226 233 231
-1.39128 -1.51999 -3.9132 23 18 15
-1.36754 -1.50861 -3.93784 23 20 16
-1.36989 -1.49672 -3.93056 22 19 15
-1.36087 -1.48979 -3.93896 20 18 14
-1.5835 -1.28398 -3.59172 24 16 12
-1.62918 -1.07932 -3.46009 24 16 12
-1.62584 -1.06991 -3.46065 25 16 12
-1.59779 -1.02782 -3.47912 24 16 12
-1.52144 -0.756877 -3.47125 26 16 12
-1.20961 0.21541 -3.48906 22 18 20
-1.1378 0.325336 -3.53553 203 88 124
-1.13446 0.334746 -3.53609 204 99 131
-1.12543 0.341674 -3.54449 202 109 134
-1.09934 0.341155 -3.57641 163 176 165
-1.05559 0.408993 -3.6044 69 166 192
-1.05794 0.420886 -3.59712 69 166 193
-1.05461 0.430296 -3.59768 86 173 188
-1.05127 0.439707 -3.59824 91 176 186
-1.04793 0.449117 -3.5988 107 181 184
-0.975736 0.504543 -3.666 201 123 139
-0.983777 0.518918 -3.65087 207 122 142
-0.974752 0.525846 -3.65927 194 128 145
-0.982794 0.540222 -3.64415 204 131 151
-0.91962 0.588719 -3.70295 78 174 199
-0.910596 0.595647 -3.71135 96 182 204
-0.90726 0.605058 -3.71191 112 183 200
-0.886857 0.607021 -3.73599 151 168 176
-0.883521 0.616432 -3.73655 159 160 167
-0.630829 0.810421 -3.97174 226 234 237
-0.615132 0.836171 -3.98126 226 233 237
-0.600418 0.840616 -3.9975 226 233 236
-0.574328 0.840098 -4.02942 225 234 236
-0.588058 0.856955 -4.00645 225 233 236
-0.579033 0.863883 -4.01485 226 234 236
-0.575697 0.873294 -4.01541 225 233 237
-0.250247 0.883407 -4.40743 217 236 228
-0.52151 1.22997 -3.94873 182 183 178
-0.161928 1.22519 -4.38779 169 174 169
-0.359065 1.35468 -4.09992 183 185 180
-0.22703 1.44919 -4.22536 180 183 178
-1.38042 -1.51287 -3.90758 23 18 15
-1.36002 -1.51091 -3.93166 23 20 17
-1.35904 -1.48961 -3.92494 21 18 15
-1.57598 -1.28628 -3.58554 24 17 12
-1.57264 -1.27687 -3.5861 25 16 12
-1.61833 -1.0722 -3.45447 25 16 12
-1.58693 -1.02071 -3.4735 23 15 12
-1.30962 0.0209746 -3.42354 27 18 14
-1.28352 0.0204558 -3.45546 29 19 16
-1.13793 0.282913 -3.53495 199 92 124
-1.1346 0.292324 -3.53551 200 92 126
-1.10517 0.301216 -3.56799 172 146 156
-1.11321 0.315591 -3.55287 190 126 142
-1.09281 0.317554 -3.57695 137 174 177
-1.08379 0.324482 -3.58535 109 174 184
-1.07142 0.340821 -3.59431 75 167 186
-1.04906 0.385392 -3.60495 69 165 188
-1.04003 0.39232 -3.61334 93 177 183
-1.04807 0.406695 -3.59822 79 169 185
-1.01629 0.403694 -3.63799 180 187 163
-1.01296 0.413104 -3.63854 194 187 163
-0.969202 0.480942 -3.66654 202 129 141
-0.971554 0.492835 -3.65926 201 125 139
-0.945464 0.492316 -3.69118 171 185 170
-0.97626 0.51662 -3.64469 204 127 145
-0.938792 0.511137 -3.6923 138 187 186
-0.90975 0.574528 -3.70405 90 183 205
-0.900726 0.581456 -3.71245 101 184 200
-0.664116 0.804196 -3.91739 226 233 236
-0.629 0.810606 -3.95772 226 234 237
-0.500899 0.819905 -4.11004 231 234 237
-0.571516 0.861586 -4.00867 226 234 237
-0.341404 0.880702 -4.28141 217 223 208
-0.32669 0.885148 -4.29765 218 227 211
-0.445729 1.19788 -4.03664 173 174 169
-0.210488 1.45382 -4.22758 170 174 168
-1.34819 -1.48249 -3.91932 20 18 14
-1.44998 -1.36201 -3.75073 23 17 14
-1.56513 -1.27916 -3.57992 25 16 12
-1.61081 -1.0745 -3.44828 25 16 12
-1.54195 -1.02849 -3.51492 25 16 13
-1.49289 -0.908633 -3.53003 21 15 12
-1.49405 -0.745134 -3.46785 26 17 13
-1.51719 -0.680705 -3.41576 26 16 12
-1.13474 0.249902 -3.53494 197 85 117
-1.1314 0.259312 -3.53549 200 90 122
-1.111 0.261276 -3.55958 193 125 143
-1.11001 0.282579 -3.55285 189 127 144
-1.11806 0.296954 -3.53773 197 110 136
-1.0749 0.288988 -3.59317 92 170 191
-1.06587 0.295917 -3.60157 71 167 191
-1.05587 0.324148 -3.60325 60 161 189
-1.04586 0.35238 -3.60493 66 163 192
-1.04252 0.36179 -3.60549 77 167 191
-1.01643 0.361272 -3.63741 168 177 170
-1.01309 0.370682 -3.63797 185 179 166
-0.935594 0.478125 -3.69228 170 199 180
-0.932258 0.487536 -3.69284 151 198 188
-0.900864 0.539034 -3.71187 83 182 201
-0.903217 0.550927 -3.70459 88 183 203
-0.894192 0.557855 -3.71299 102 184 199
-0.87379 0.559819 -3.73707 150 167 174
-0.850052 0.571193 -3.76171 207 130 152
-0.841027 0.578121 -3.77011 205 113 143
-0.84338 0.590014 -3.76283 207 110 142
-0.567334 0.849877 -4.00193 226 234 237
-0.316821 0.870957 -4.29875 223 231 222
-0.313485 0.880368 -4.29931 214 224 211
-0.236196 0.857508 -4.40179 218 233 239
-0.23286 0.866918 -4.40235 222 238 240
-0.71443 1.12052 -3.72245 164 162 158
-0.705405 1.12745 -3.73084 169 168 164
-0.335391 1.41151 -4.07523 178 180 174
-1.45132 -1.55604 -3.80506 22 18 14
-1.44935 -1.51343 -3.79161 22 16 13
-1.344 -1.4942 -3.91258 23 20 17
-1.53524 -1.23689 -3.58437 24 16 12
-1.58879 -1.20266 -3.50652 24 16 12
-1.59996 -1.06739 -3.44266 24 16 12
-1.48182 -0.771217 -3.47623 26 17 13
-1.50535 -0.652288 -3.40341 26 16 12
-1.28851 -0.040603 -3.43974 27 19 15
-1.2877 0.165503 -3.36411 22 16 15
-1.11447 0.209443 -3.55844 206 110 136
-1.12251 0.223818 -3.54332 203 95 126
-1.11349 0.230746 -3.55172 207 116 141
-1.11015 0.240157 -3.55228 203 121 144
-1.11819 0.254532 -3.53715 203 105 134
-1.09779 0.256496 -3.56123 171 145 160
-1.10014 0.268388 -3.55395 177 138 153
-1.06738 0.286691 -3.58699 86 169 191
-1.04266 0.319368 -3.60491 68 165 189
-1.04501 0.331261 -3.59763 64 163 190
-1.04168 0.340672 -3.59819 71 167 193
-1.01559 0.340153 -3.63011 154 167 171
-1.01225 0.349563 -3.63067 168 170 167
-1.00891 0.358974 -3.63123 180 172 166
-0.970848 0.429293 -3.65138 209 99 135
-0.967512 0.438704 -3.65194 210 110 138
-0.938085 0.447596 -3.68442 193 192 162
-0.934749 0.457006 -3.68498 186 197 169
-0.931413 0.466417 -3.68554 172 200 179
-0.89433 0.515433 -3.71241 76 174 196
-0.890994 0.524844 -3.71297 88 178 195
-0.887658 0.534254 -3.71353 93 178 194
-0.890011 0.546147 -3.70625 100 180 195
-0.886675 0.555558 -3.70681 107 180 194
-0.816829 0.622876 -3.76672 214 136 155
-0.813493 0.632287 -3.76728 210 144 162
-0.79878 0.636732 -3.78352 179 159 172
-0.778378 0.638696 -3.8076 120 176 191
-0.309303 0.868659 -4.29257 223 230 225
-0.228678 0.85521 -4.39561 218 233 239
-0.121327 1.23215 -4.38605 167 173 169
-0.126032 1.25594 -4.37148 172 178 173
0.135338 1.82646 -4.47726 186 194 191
-1.4385 -1.50632 -3.78599 22 16 13
-1.58127 -1.20496 -3.50034 24 16 12
-1.61814 -1.12367 -3.42529 25 16 12
-1.45882 -0.878069 -3.52774 22 16 13
-1.45549 -0.868658 -3.5283 22 16 13
-1.50019 -0.642693 -3.38995 26 16 12
-1.29989 -0.577969 -3.60947 27 17 14
-1.26354 -0.104848 -3.47781 29 18 15
-1.125 0.193289 -3.53546 198 85 120
-1.12167 0.202699 -3.53602 201 92 124
-1.12402 0.214592 -3.52874 198 88 121
-1.10362 0.216556 -3.55282 199 124 145
-1.10028 0.225966 -3.55338 192 132 150
-1.06183 0.241786 -3.59426 76 166 194
-1.04515 0.288839 -3.59705 65 164 189
-1.04181 0.298249 -3.59761 70 166 190
-1.04417 0.310142 -3.59033 68 163 190
-1.01808 0.309623 -3.62225 139 171 183
-0.997674 0.311587 -3.64633 192 127 144
-0.98865 0.318515 -3.65473 200 112 138
-0.985314 0.327926 -3.65529 204 110 136
-0.978641 0.346747 -3.65641 207 98 130
-0.961961 0.393799 -3.6592 204 101 134
-0.964314 0.405692 -3.65192 204 97 132
-0.925862 0.421512 -3.6928 177 201 175
-0.922526 0.430923 -3.69336 166 200 175
-0.882108 0.489349 -3.7208 94 182 195
-0.878772 0.49876 -3.72135 107 187 195
-0.875436 0.508171 -3.72191 115 185 189
-0.849345 0.507652 -3.75384 197 189 172
-0.846009 0.517062 -3.75439 203 178 170
-0.842673 0.526473 -3.75495 210 160 163
-0.816968 0.580454 -3.76615 219 126 152
-0.813632 0.589864 -3.76671 217 131 155
-0.806959 0.608685 -3.76782 210 140 158
-0.792246 0.613131 -3.78406 182 160 173
-0.753794 0.628951 -3.82495 77 173 200
-0.579374 0.824497 -3.96437 225 234 237
-0.307475 0.868844 -4.27854 221 228 222
-0.22685 0.855394 -4.38159 220 233 241
-0.128523 1.22541 -4.36363 164 170 165
-0.125187 1.23482 -4.36419 167 173 168
-0.0794269 1.66037 -4.26165 183 188 184
-0.0760909 1.66978 -4.26221 182 187 183
-1.61298 -1.11407 -3.41182 25 17 12
-1.60964 -1.10466 -3.41238 25 17 12
-1.48796 -0.668777 -3.39833 26 16 12
-1.48463 -0.659366 -3.39889 26 16 12
-1.48698 -0.647473 -3.39161 26 16 12
-1.24998 -0.479233 -3.61728 28 20 16
-1.10709 0.164723 -3.55168 210 97 132
-1.10945 0.176616 -3.5444 208 98 130
-1.1118 0.188509 -3.53712 204 99 129
-1.09375 0.202365 -3.55392 190 133 155
-1.0553 0.218185 -3.5948 63 165 193
-1.04195 0.255827 -3.59703 67 165 190
-1.02861 0.293469 -3.59927 89 175 194
-0.996829 0.290468 -3.63903 187 134 151
-0.961116 0.372681 -3.6519 212 98 135
-0.952091 0.379609 -3.6603 203 108 133
-0.943067 0.386537 -3.6687 202 137 144
-0.922664 0.3885 -3.69278 166 191 178
-0.919328 0.397911 -3.69334 159 192 178
-0.915992 0.407322 -3.6939 151 200 185
-0.881262 0.468231 -3.7135 76 174 198
-0.877926 0.477641 -3.71406 92 180 195
-0.87459 0.487052 -3.71461 106 185 193
-0.8485 0.486533 -3.74654 187 202 179
-0.845164 0.495943 -3.74709 193 196 176
-0.807098 0.566263 -3.76725 220 129 154
-0.80945 0.578156 -3.75997 217 131 155
-0.806114 0.587567 -3.76053 213 135 157
-0.739605 0.645474 -3.81988 86 177 199
-0.724892 0.64992 -3.83612 108 187 203
-0.710178 0.654366 -3.85236 152 181 194
-0.565185 0.841021 -3.95931 226 234 238
-0.303293 0.857136 -4.2718 226 231 233
-0.299957 0.866546 -4.27236 222 230 224
-0.213644 0.850614 -4.38325 219 231 240
-0.178104 1.11763 -4.32722 146 143 138
-0.16181 1.21918 -4.30928 168 172 166
-0.0996199 1.24638 -4.3748 171 176 172
-0.313225 1.45912 -4.03596 173 177 171
-0.0491549 1.64814 -4.28683 184 189 185
0.0377564 1.70801 -4.37027 185 191 186
-1.60546 -1.11637 -3.40564 25 16 12
-1.58169 -0.789891 -3.3132 26 16 12
-1.48378 -0.680485 -3.39159 26 16 12
-1.47946 -0.649771 -3.38543 26 16 12
-1.47613 -0.64036 -3.38598 26 16 12
-1.47279 -0.63095 -3.38654 26 16 12
-1.4467 -0.631469 -3.41847 25 17 13
-1.23776 -0.505317 -3.62566 27 20 16
-1.24011 -0.493424 -3.61838 27 19 16
-1.09722 0.150532 -3.55278 205 96 131
-1.10526 0.164907 -3.53766 205 94 128
-1.02973 0.229743 -3.60542 73 170 189
-1.02541 0.260457 -3.59925 88 177 195
-1.02207 0.269868 -3.59981 100 177 193
-1.00167 0.271832 -3.62389 160 153 164
-0.961254 0.330258 -3.65133 204 90 127
-0.957918 0.339669 -3.65189 205 90 127
-0.945557 0.356008 -3.66084 208 119 144
-0.94791 0.3679 -3.65356 205 108 137
-0.915147 0.386203 -3.6866 148 187 180
-0.906122 0.393131 -3.695 112 177 180
-0.878065 0.435219 -3.71348 64 167 196
-0.874729 0.444629 -3.71404 75 173 195
-0.877081 0.456522 -3.70676 77 174 197
-0.868057 0.463451 -3.71516 101 185 194
-0.832941 0.46986 -3.75548 196 187 166
-0.8039 0.533251 -3.76723 210 109 139
-0.789186 0.537697 -3.78347 204 133 148
-0.791539 0.54959 -3.77619 201 134 147
-0.79958 0.563965 -3.76107 216 130 153
-0.796244 0.573376 -3.76163 207 144 162
-0.798597 0.585269 -3.75434 209 140 160
-0.727382 0.619391 -3.82826 94 190 209
-0.724046 0.628801 -3.82882 103 192 209
-0.726399 0.640694 -3.82154 105 193 211
-0.723063 0.650105 -3.8221 113 188 204
-0.702661 0.652068 -3.84618 160 172 185
-0.67657 0.65155 -3.8781 211 128 155
-0.669898 0.670371 -3.87922 203 124 152
-0.298129 0.866731 -4.25834 217 223 218
-0.211815 0.850799 -4.36923 216 229 238
-0.15489 1.14108 -4.33055 156 158 154
-0.142529 1.15742 -4.33951 157 159 156
-0.106816 1.23963 -4.35238 169 174 170
-0.0887666 1.25349 -4.36918 178 182 179
-0.0797418 1.26042 -4.37758 173 177 173
0.212348 1.17642 -4.76401 138 148 131
-0.0563511 1.6414 -4.26441 184 187 184
0.193006 1.82598 -4.49904 189 196 193
-1.42163 -1.51073 -3.75961 23 16 12
-1.4183 -1.50132 -3.76016 22 16 12
-1.59893 -1.13997 -3.40618 25 16 12
-1.59559 -1.13056 -3.40674 25 16 12
-1.59226 -1.12115 -3.4073 24 15 11
-1.59461 -1.10926 -3.40002 25 16 12
-1.54337 -0.816494 -3.3535 28 17 13
-1.57417 -0.792189 -3.30702 26 16 12
-1.57083 -0.782779 -3.30758 26 16 12
-1.47627 -0.682783 -3.38541 26 16 12
-1.47195 -0.652069 -3.37924 26 16 12
-1.4743 -0.640176 -3.37196 26 16 12
-1.47096 -0.630765 -3.37252 27 17 12
-1.09638 0.129413 -3.54548 206 95 130
-1.09304 0.138824 -3.54604 202 97 131
-1.10108 0.153199 -3.53092 201 98 130
-1.03889 0.180393 -3.59644 65 165 195
-0.958056 0.297247 -3.65131 204 92 127
-0.939024 0.332406 -3.66139 202 123 146
-0.935687 0.341817 -3.66195 200 131 151
-0.903908 0.338816 -3.70171 103 175 192
-0.900572 0.348226 -3.70227 101 176 193
-0.869178 0.399725 -3.7213 73 174 199
-0.871531 0.411618 -3.71402 68 170 200
-0.868195 0.421028 -3.71458 77 173 199
-0.829743 0.436848 -3.75546 206 193 176
-0.832096 0.448741 -3.74818 197 198 173
-0.800702 0.50024 -3.76721 212 106 139
-0.797366 0.50965 -3.76777 215 117 146
-0.726537 0.598272 -3.82096 88 187 208
-0.717513 0.6052 -3.82936 99 191 208
-0.719865 0.617093 -3.82208 104 190 207
-0.716529 0.626504 -3.82264 112 188 203
-0.655323 0.632394 -3.89488 212 117 147
-0.657675 0.644287 -3.8876 214 114 144
-0.741424 0.778629 -3.73582 221 227 231
-0.293948 0.855022 -4.2516 225 230 229
-0.209987 0.850984 -4.35521 219 231 239
-0.160717 1.10114 -4.32213 142 136 131
-0.151692 1.10807 -4.33053 148 142 138
-0.14502 1.12689 -4.33165 154 152 148
-0.155414 1.15316 -4.30925 161 162 158
-0.154816 1.22896 -4.2818 166 170 164
-0.108323 1.23041 -4.3378 163 168 164
-0.0992987 1.23733 -4.3462 169 173 169
-0.0812493 1.25119 -4.363 176 180 177
-0.0722245 1.25812 -4.3714 174 178 174
0.222217 1.16223 -4.76511 132 145 125
0.219865 1.17413 -4.75783 135 146 127
-1.4 -1.58438 -3.79711 26 21 18
-1.42314 -1.51995 -3.74502 26 19 15
-1.41981 -1.51054 -3.74558 24 16 13
-1.41078 -1.50361 -3.75398 22 16 12
-1.49765 -1.24838 -3.55346 24 16 12
-1.49432 -1.23897 -3.55402 24 16 13
-1.49098 -1.22956 -3.55458 24 16 12
-1.58807 -1.13286 -3.40056 26 17 12
-1.58474 -1.12345 -3.40112 24 16 11
-1.5814 -1.11404 -3.40168 24 15 11
-1.58376 -1.10215 -3.3944 25 16 12
-1.57473 -1.09522 -3.4028 25 16 12
-1.47721 -0.931311 -3.46046 23 17 14
-1.56665 -0.794487 -3.30084 27 16 12
-1.56331 -0.785076 -3.30139 27 16 12
-1.55468 -0.723649 -3.28907 27 17 13
-1.46875 -0.685081 -3.37923 26 16 12
-1.46208 -0.666259 -3.38034 26 15 11
-1.46109 -0.644956 -3.37362 26 16 12
-1.32744 -0.138231 -3.3478 24 16 12
-1.26641 0.0524619 -3.35114 29 18 16
-1.08651 0.115223 -3.54658 202 93 130
-1.08317 0.124633 -3.54714 199 100 134
-1.03668 0.126078 -3.60315 83 167 194
-0.954859 0.264235 -3.65129 205 91 126
-0.951523 0.273645 -3.65185 206 97 128
-0.939162 0.289984 -3.66081 210 117 142
-0.938178 0.311288 -3.65409 209 120 146
-0.912088 0.310769 -3.68601 143 162 174
-0.871669 0.369195 -3.71344 62 168 196
-0.868333 0.378606 -3.714 67 171 196
-0.870686 0.390499 -3.70672 66 170 198
-0.861661 0.397427 -3.71512 81 176 196
-0.858325 0.406838 -3.71568 95 181 196
-0.826545 0.403836 -3.75544 193 169 167
-0.819873 0.422658 -3.75656 197 153 151
-0.816537 0.432068 -3.75712 198 140 142
-0.794168 0.476638 -3.76775 211 102 138
-0.790832 0.486049 -3.76831 212 110 141
-0.793185 0.497942 -3.76103 216 116 147
-0.749045 0.511279 -3.80975 177 212 190
-0.751397 0.523172 -3.80247 171 206 186
-0.748061 0.532583 -3.80303 152 201 191
-0.708626 0.569706 -3.83719 95 183 202
-0.70529 0.579117 -3.83775 107 183 199
-0.713331 0.593492 -3.82262 102 189 207
-0.687241 0.592973 -3.85455 162 169 176
-0.672527 0.597419 -3.87079 199 158 169
-0.663502 0.604347 -3.87919 210 137 156
-0.652511 0.653882 -3.87414 215 118 148
-0.649175 0.663293 -3.8747 210 120 148
-0.623084 0.662774 -3.90662 197 156 170
-0.619748 0.672185 -3.90718 188 165 178
-0.616412 0.681595 -3.90774 174 172 184
-0.59601 0.683559 -3.93182 122 185 200
-0.295455 0.845796 -4.23702 227 230 234
-0.292119 0.855207 -4.23758 223 227 225
-0.260339 0.852206 -4.27734 218 231 237
-0.202469 0.848686 -4.34902 214 226 234
-0.0951175 1.22563 -4.33946 162 167 164
-0.0917815 1.23504 -4.34002 166 170 166
-0.0827567 1.24197 -4.34842 168 172 169
0.224046 1.16242 -4.75109 131 143 124
-1.37816 -1.52773 -3.78645 26 21 17
-1.40895 -1.50343 -3.73996 24 17 13
-1.39993 -1.4965 -3.74836 23 17 13
-1.27555 -1.44211 -3.8794 22 18 16
-1.49014 -1.25068 -3.54728 24 16 12
-1.4868 -1.24127 -3.54784 25 17 13
-1.57722 -1.12575 -3.39494 26 17 12
-1.57389 -1.11634 -3.3955 24 15 11
-1.57055 -1.10693 -3.39606 24 15 11
