ply
format ascii 1.0
element face 0
property list uchar int vertex_indices
element vertex 1234
property float x
property float y
property float z
property uchar diffuse_red
property uchar diffuse_green
property uchar diffuse_blue
end_header
-0.821511 0.135702 -3.72631 74 173 201
-0.821174 0.144343 -3.75673 91 172 197
-0.821217 0.154332 -3.75718 90 170 197
-0.82164 0.165671 -3.72766 77 173 201
-0.821556 0.175211 -3.7381 82 174 197
-0.821599 0.185201 -3.73855 91 173 195
-0.821769 0.195641 -3.72901 98 174 195
-0.821812 0.20563 -3.72946 98 167 186
-0.821855 0.21562 -3.72991 99 161 181
-0.821517 0.224261 -3.76033 148 163 183
-0.82156 0.23425 -3.76078 154 162 182
-0.821603 0.24424 -3.76123 162 161 180
-0.822026 0.255579 -3.73172 152 179 196
-0.821942 0.265119 -3.74216 164 178 194
-0.821985 0.275109 -3.74261 168 165 182
-0.822028 0.285099 -3.74306 165 154 169
-0.822071 0.295089 -3.74351 163 154 167
-0.821987 0.304629 -3.75395 174 144 158
-0.82203 0.314618 -3.7544 176 147 159
-0.8222 0.325058 -3.74486 175 146 157
-0.822116 0.334598 -3.7553 188 148 160
-0.822159 0.344588 -3.75575 188 144 156
-0.822202 0.354577 -3.7562 187 141 154
-0.822245 0.364567 -3.75665 192 144 156
-0.822288 0.374557 -3.7571 195 147 157
-0.822331 0.384547 -3.75755 192 155 161
-0.822374 0.394536 -3.758 203 157 161
-0.822543 0.404976 -3.74846 193 164 162
-0.822586 0.414966 -3.74891 187 159 154
-0.822502 0.424506 -3.75935 199 160 157
-0.822672 0.434945 -3.74981 203 174 164
-0.822715 0.444935 -3.75026 202 168 157
-0.822758 0.454925 -3.75071 188 158 146
-0.822801 0.464914 -3.75116 191 152 141
-0.822717 0.474454 -3.7616 184 133 128
-0.82276 0.484444 -3.76205 190 126 128
-0.822549 0.493534 -3.78248 206 120 142
-0.822762 0.513964 -3.77339 207 114 138
-0.822764 0.543483 -3.78473 215 108 142
-0.822934 0.553923 -3.77519 215 110 144
-0.822977 0.563912 -3.77564 218 115 147
-0.823146 0.574352 -3.7661 218 118 148
-0.823189 0.584342 -3.76656 218 122 149
-0.823232 0.594332 -3.76701 216 122 148
-0.823275 0.604321 -3.76746 216 121 147
-0.823444 0.614761 -3.75792 212 123 150
-0.823487 0.624751 -3.75837 211 127 150
-0.823024 0.632941 -3.79877 200 144 159
-0.82294 0.642481 -3.80921 192 163 173
-0.822603 0.651122 -3.83963 185 194 201
-0.823026 0.662461 -3.81011 211 207 211
-0.822357 0.7683 -3.90497 222 229 232
-0.822443 0.78828 -3.90587 221 229 232
-0.822486 0.79827 -3.90632 220 229 232
-0.822791 0.927237 -3.93215 222 225 228
-0.82296 0.937676 -3.92261 202 204 205
-0.820152 1.24251 -4.26666 180 180 174
-0.822958 1.51808 -4.14897 170 169 164
-0.822885 1.67521 -4.21611 166 163 161
-0.822801 1.68475 -4.22654 167 164 162
-0.822298 1.74199 -4.28918 166 161 161
-0.821961 1.75064 -4.3196 167 164 163
-0.821793 1.76972 -4.34048 166 162 162
-0.821963 1.78015 -4.33094 166 159 160
-0.821879 1.78969 -4.34138 162 156 157
-0.821795 1.79923 -4.35182 161 154 156
-0.821712 1.80877 -4.36226 164 157 159
-0.821248 1.81697 -4.40266 161 157 158
-0.821037 1.82606 -4.42309 162 157 159
-0.817541 -1.22009 -2.71418 32 21 16
-0.807343 -0.921815 -3.64848 78 157 170
-0.817913 -0.726897 -2.87654 24 22 16
-0.808202 -0.722019 -3.65749 65 61 49
-0.808118 -0.712479 -3.66793 62 52 36
-0.808161 -0.70249 -3.66838 61 53 36
-0.80833 -0.69205 -3.65884 68 59 43
-0.808247 -0.68251 -3.66928 60 46 28
-0.808416 -0.672071 -3.65974 67 51 36
-0.808332 -0.662531 -3.67018 52 35 22
-0.808375 -0.652541 -3.67063 52 31 19
-0.808545 -0.642101 -3.66109 52 28 17
-0.808588 -0.632112 -3.66154 49 24 13
-0.808504 -0.622572 -3.67198 41 20 12
-0.808674 -0.612132 -3.66245 46 19 11
-0.808717 -0.602142 -3.6629 42 17 9
-0.808759 -0.592152 -3.66335 40 15 9
-0.808802 -0.582163 -3.6638 40 15 10
-0.808972 -0.571723 -3.65426 42 14 9
-0.808635 -0.563083 -3.68467 35 21 18
-0.808678 -0.553093 -3.68513 35 20 18
-0.808721 -0.543103 -3.68558 36 21 20
-0.80927 -0.531314 -3.64607 34 15 14
-0.809064 -0.463185 -3.68918 25 28 24
-0.80915 -0.443206 -3.69008 23 27 22
-0.810165 -0.410088 -3.62151 23 21 17
-0.810208 -0.400098 -3.62196 23 21 17
-0.810251 -0.390108 -3.62241 24 23 19
-0.810294 -0.380119 -3.62286 25 25 20
-0.810337 -0.370129 -3.62331 27 29 24
-0.81038 -0.360139 -3.62376 31 33 28
-0.810423 -0.350149 -3.62421 30 32 26
-0.810635 -0.32972 -3.61512 33 35 28
-0.810678 -0.31973 -3.61557 30 33 27
-0.810721 -0.309741 -3.61602 32 36 29
-0.810764 -0.299751 -3.61647 31 34 28
-0.811105 -0.249352 -3.60873 23 28 22
-0.811148 -0.239363 -3.60918 26 31 24
-0.811191 -0.229373 -3.60963 28 34 26
-0.811234 -0.219383 -3.61008 32 39 30
-0.811404 -0.208944 -3.60055 29 33 26
-0.811447 -0.198954 -3.601 31 36 29
-0.811363 -0.189414 -3.61144 38 49 38
-0.811659 -0.178524 -3.59191 33 36 28
-0.811702 -0.168535 -3.59236 35 39 30
-0.811745 -0.158545 -3.59281 36 41 32
-0.811661 -0.149005 -3.60325 38 48 36
-0.811831 -0.138565 -3.59371 41 49 39
-0.811874 -0.128576 -3.59416 46 54 44
-0.811663 -0.119485 -3.61459 48 62 49
-0.81196 -0.108596 -3.59506 51 58 46
-0.812003 -0.0986064 -3.59551 55 64 51
-0.812172 -0.0881669 -3.58597 55 62 50
-0.812088 -0.0786269 -3.59641 53 66 52
-0.812131 -0.0686371 -3.59686 53 66 52
-0.812301 -0.0581976 -3.58732 53 67 53
-0.812344 -0.0482079 -3.58777 52 64 51
-0.812387 -0.0382181 -3.58822 56 65 53
-0.81243 -0.0282283 -3.58867 55 63 53
-0.812473 -0.0182386 -3.58912 56 68 57
-0.812516 -0.00824882 -3.58957 60 73 61
-0.812432 0.00129118 -3.60001 61 77 64
-0.812348 0.0108312 -3.61045 65 81 69
-0.812391 0.0208209 -3.6109 69 84 75
-0.812434 0.0308107 -3.61135 73 81 76
-0.811426 0.115771 -3.72529 86 173 190
-0.811469 0.125761 -3.72574 87 179 198
-0.811385 0.135301 -3.73618 88 171 195
-0.811428 0.145291 -3.73663 99 174 202
-0.811218 0.154381 -3.75706 120 168 194
-0.811388 0.16482 -3.74752 115 168 194
-0.811557 0.17526 -3.73798 112 175 199
-0.8116 0.18525 -3.73843 120 176 198
-0.811643 0.195239 -3.73888 127 172 193
-0.811686 0.205229 -3.73933 137 169 189
-0.811729 0.215219 -3.73978 148 165 185
-0.811645 0.224759 -3.75022 154 147 169
-0.811688 0.234749 -3.75067 162 141 165
-0.811604 0.244289 -3.76111 170 131 157
-0.811774 0.254728 -3.75157 168 126 151
-0.81169 0.264268 -3.76201 179 119 146
-0.812029 0.285147 -3.74293 173 119 142
-0.811988 0.304677 -3.75382 193 130 151
-0.812031 0.314667 -3.75427 197 134 152
-0.812074 0.324657 -3.75472 198 136 154
-0.812244 0.335096 -3.74518 199 139 154
-0.81216 0.344636 -3.75562 201 130 149
-0.812203 0.354626 -3.75607 201 134 152
-0.812246 0.364616 -3.75652 201 134 151
-0.812289 0.374605 -3.75697 205 130 148
-0.812332 0.384595 -3.75742 205 135 150
-0.812375 0.394585 -3.75787 199 131 142
-0.812417 0.404575 -3.75832 204 136 148
-0.81246 0.414564 -3.75877 193 120 132
-0.812503 0.424554 -3.75923 196 122 134
-0.812546 0.434544 -3.75968 199 127 138
-0.812589 0.444534 -3.76013 199 122 134
-0.812505 0.454074 -3.77057 203 111 133
-0.811408 0.460016 -3.86092 207 160 164
-0.812591 0.474053 -3.77147 207 116 137
-0.812381 0.483143 -3.79189 209 106 142
-0.81255 0.493583 -3.78236 208 105 136
-0.81272 0.504023 -3.77282 205 104 133
-0.812636 0.513563 -3.78326 207 103 135
-0.812806 0.524002 -3.77372 206 100 133
-0.812722 0.533542 -3.78416 211 105 139
-0.812765 0.543532 -3.78461 211 108 139
-0.812808 0.553522 -3.78506 216 115 145
-0.813104 0.564411 -3.76553 221 122 150
-0.813147 0.574401 -3.76598 223 128 155
-0.81319 0.58439 -3.76643 219 132 156
-0.81336 0.59483 -3.75689 215 129 153
-0.813276 0.60437 -3.76733 218 136 157
-0.813319 0.61436 -3.76778 217 139 158
-0.813362 0.624349 -3.76823 214 138 156
-0.813151 0.63344 -3.78866 201 149 163
-0.812941 0.64253 -3.80909 181 165 174
-0.81311 0.652969 -3.79955 187 179 183
-0.813153 0.662959 -3.8 209 208 211
-0.813069 0.672499 -3.81044 211 215 218
-0.812109 0.826488 -3.9475 221 228 231
-0.812749 0.917296 -3.93158 223 229 232
-0.812665 0.926836 -3.94202 223 227 230
-0.812708 0.936826 -3.94247 211 214 215
-0.811966 1.1998 -4.10446 179 179 174
-0.814003 1.3546 -4.00134 174 173 167
-0.812802 1.6848 -4.22642 169 166 164
-0.812718 1.69434 -4.23686 166 162 160
-0.812507 1.70343 -4.25729 169 166 164
-0.81255 1.71342 -4.25774 168 164 163
-0.81234 1.72251 -4.27817 169 165 164
-0.812426 1.74249 -4.27907 163 157 157
-0.811835 1.75023 -4.32946 166 165 163
-0.811541 1.76886 -4.36033 167 165 163
-0.81171 1.7793 -4.35079 164 160 160
-0.811627 1.78884 -4.36123 164 159 160
-0.811755 1.81881 -4.36258 162 153 155
-0.811418 1.82745 -4.393 162 155 158
-0.806771 -0.760416 -2.95498 36 24 20
-0.798033 -0.73241 -3.66691 58 41 29
-0.798076 -0.722421 -3.66736 56 39 25
-0.798245 -0.711981 -3.65782 62 44 29
-0.798162 -0.702441 -3.66826 50 33 17
-0.798205 -0.692451 -3.66871 47 30 14
-0.798247 -0.682462 -3.66916 45 28 12
-0.79829 -0.672472 -3.66961 43 28 13
-0.79846 -0.662032 -3.66007 44 25 11
-0.798123 -0.653392 -3.69049 37 26 19
-0.798166 -0.643402 -3.69094 36 24 18
-0.798589 -0.632063 -3.66142 38 18 8
-0.798378 -0.622973 -3.68185 33 19 12
-0.798421 -0.612983 -3.6823 34 21 16
-0.798464 -0.602993 -3.68275 34 22 18
-0.798887 -0.591654 -3.65323 35 16 9
-0.798679 -0.553044 -3.685 32 23 21
-0.798848 -0.542605 -3.67546 31 20 19
-0.799486 -0.481317 -3.6482 27 25 24
-0.799655 -0.470878 -3.63866 24 23 21
-0.799698 -0.460888 -3.63911 25 26 23
-0.799404 -0.442258 -3.66998 24 29 24
-0.799954 -0.430469 -3.63047 26 29 25
-0.800209 -0.40005 -3.62183 26 26 23
-0.800379 -0.38961 -3.61229 26 24 20
-0.800892 -0.299253 -3.60636 29 35 27
-0.800935 -0.289263 -3.60681 26 32 23
-0.800978 -0.279273 -3.60726 22 27 19
-0.801147 -0.268834 -3.59772 23 27 20
-0.80119 -0.258844 -3.59817 28 31 24
-0.801106 -0.249304 -3.60861 27 35 26
-0.801149 -0.239314 -3.60906 28 37 27
-0.801319 -0.228874 -3.59952 28 35 26
-0.801362 -0.218885 -3.59997 32 40 30
-0.801405 -0.208895 -3.60042 39 48 38
-0.801448 -0.198905 -3.60087 45 55 44
-0.801617 -0.188466 -3.59133 43 51 41
-0.80166 -0.178476 -3.59178 44 52 41
-0.801703 -0.168486 -3.59223 45 52 41
-0.801619 -0.158946 -3.60267 42 55 42
-0.801916 -0.148057 -3.58315 47 54 43
-0.801832 -0.138517 -3.59358 48 59 47
-0.801875 -0.128527 -3.59403 53 62 50
-0.801918 -0.118537 -3.59449 55 65 53
-0.801961 -0.108548 -3.59494 58 69 56
-0.802004 -0.0985578 -3.59539 61 71 58
-0.802046 -0.0885681 -3.59584 59 70 57
-0.802216 -0.0781286 -3.5863 60 70 57
-0.802006 -0.0690383 -3.60673 60 75 61
-0.802302 -0.058149 -3.5872 56 69 56
-0.802218 -0.048609 -3.59764 59 73 59
-0.802261 -0.0386193 -3.59809 60 73 61
-0.802557 -0.02773 -3.57856 62 72 61
-0.802474 -0.01819 -3.589 61 74 62
-0.802516 -0.00820024 -3.58945 66 78 65
-0.802559 0.00178952 -3.5899 66 79 66
-0.802602 0.0117793 -3.59035 70 86 74
-0.802435 0.0308593 -3.61123 69 77 72
-0.802478 0.040849 -3.61168 77 79 77
-0.801384 0.10583 -3.72471 110 163 179
-0.801427 0.11582 -3.72516 103 173 188
-0.80147 0.125809 -3.72561 106 177 195
-0.801386 0.135349 -3.73605 120 174 197
-0.801556 0.145789 -3.72651 118 172 198
-0.801345 0.154879 -3.74694 138 161 190
-0.801388 0.164869 -3.74739 143 161 188
-0.801431 0.174859 -3.74784 152 159 183
-0.801601 0.185298 -3.7383 148 161 183
-0.80139 0.194389 -3.75873 172 148 170
-0.801433 0.204378 -3.75918 176 144 167
-0.801603 0.214818 -3.74964 169 139 162
-0.801646 0.224808 -3.75009 168 126 151
-0.801562 0.234348 -3.76053 188 124 153
-0.801478 0.243888 -3.77097 193 112 146
-0.801691 0.264317 -3.76188 196 107 141
-0.801734 0.274307 -3.76233 204 111 146
-0.802032 0.314715 -3.75415 207 125 149
-0.801948 0.324255 -3.76459 208 117 145
-0.801991 0.334245 -3.76504 206 115 143
-0.802034 0.344235 -3.76549 209 116 144
-0.80195 0.353775 -3.77593 209 114 144
-0.80212 0.364214 -3.76639 211 116 145
-0.802163 0.374204 -3.76684 214 117 147
-0.802206 0.384194 -3.76729 212 118 146
-0.802375 0.394633 -3.75775 202 109 131
-0.802292 0.404173 -3.76819 208 107 136
-0.802335 0.414163 -3.76864 206 108 137
-0.802251 0.423703 -3.77908 210 106 140
-0.802463 0.444133 -3.76999 211 105 137
-0.802506 0.454122 -3.77044 206 99 132
-0.802422 0.463662 -3.78088 209 98 135
-0.802465 0.473652 -3.78133 210 101 137
-0.802635 0.484092 -3.77179 209 100 135
-0.802678 0.494081 -3.77224 210 103 136
-0.802848 0.504521 -3.7627 211 106 139
-0.802764 0.514061 -3.77314 210 105 137
-0.802807 0.524051 -3.77359 209 106 137
-0.802343 0.532241 -3.814 204 139 151
-0.803019 0.54448 -3.7645 212 116 142
-0.802555 0.552671 -3.80491 203 135 149
-0.802598 0.56266 -3.80536 201 137 152
-0.803148 0.574449 -3.76586 215 136 157
-0.802811 0.58309 -3.79627 197 140 154
-0.802854 0.593079 -3.79672 196 140 154
-0.802897 0.603069 -3.79717 195 145 159
-0.802939 0.613059 -3.79762 195 149 162
-0.803109 0.623498 -3.78809 192 153 165
-0.803152 0.633488 -3.78854 184 157 170
-0.803068 0.643028 -3.79898 173 166 175
-0.803111 0.653018 -3.79943 177 181 188
-0.803027 0.662558 -3.80986 190 202 208
-0.802944 0.672098 -3.8203 204 220 226
-0.802749 0.917344 -3.93145 221 226 230
-0.802666 0.926884 -3.94189 223 228 231
-0.802582 0.936424 -3.95233 221 225 227
-0.804004 1.35464 -4.00121 174 173 168
-0.804057 1.51223 -4.05836 169 166 162
-0.802384 1.73255 -4.27849 168 164 163
-0.8023 1.74209 -4.28893 167 162 162
-0.802259 1.76162 -4.29982 163 156 156
-0.802048 1.77071 -4.32025 164 159 159
-0.801965 1.78025 -4.33069 167 162 162
-0.802008 1.79024 -4.33114 166 160 160
-0.801924 1.79978 -4.34158 161 155 155
-0.80184 1.80932 -4.35202 163 156 158
-0.801503 1.81796 -4.38244 163 158 160
-0.801166 1.8266 -4.41285 164 159 161
-0.801335 1.83704 -4.40332 158 150 154
-0.794604 -0.97465 -3.04529 34 26 21
-0.787648 -0.82227 -3.66273 61 39 35
-0.787737 -0.743251 -3.68631 44 26 17
-0.788034 -0.732362 -3.66678 47 27 16
-0.788077 -0.722372 -3.66723 48 25 14
-0.787866 -0.713282 -3.68766 38 24 15
-0.788162 -0.702392 -3.66813 41 22 9
-0.788205 -0.692403 -3.66858 38 20 8
-0.788122 -0.682863 -3.67902 33 19 9
-0.788165 -0.672873 -3.67947 35 22 13
-0.788207 -0.662883 -3.67992 34 22 13
-0.788504 -0.651994 -3.66039 33 18 9
-0.788126 -0.623824 -3.7017 30 26 21
-0.788295 -0.613384 -3.69216 27 21 16
-0.789442 -0.520778 -3.63628 25 22 21
-0.789955 -0.43042 -3.63035 31 32 29
-0.790807 -0.319184 -3.60533 29 36 27
-0.79085 -0.309194 -3.60578 30 38 29
-0.790893 -0.299204 -3.60623 31 39 30
-0.790936 -0.289214 -3.60668 30 38 28
-0.791105 -0.278775 -3.59714 28 36 26
-0.791021 -0.269235 -3.60758 28 39 28
-0.791064 -0.259245 -3.60803 30 40 29
-0.791107 -0.249255 -3.60848 29 40 29
-0.791277 -0.238816 -3.59895 32 42 31
-0.79132 -0.228826 -3.5994 34 44 33
-0.791363 -0.218836 -3.59985 41 53 40
-0.791532 -0.208397 -3.59031 45 55 44
-0.791575 -0.198407 -3.59076 49 61 49
-0.791618 -0.188417 -3.59121 52 64 52
-0.791661 -0.178427 -3.59166 51 63 50
-0.791704 -0.168438 -3.59211 49 63 49
-0.79162 -0.158898 -3.60255 48 64 49
-0.79179 -0.148458 -3.59301 50 62 48
-0.791833 -0.138468 -3.59346 54 66 52
-0.791876 -0.128479 -3.59391 56 69 55
-0.791919 -0.118489 -3.59436 58 71 57
-0.791835 -0.108949 -3.6048 61 76 62
-0.792131 -0.0980595 -3.58527 62 71 58
-0.792301 -0.08762 -3.57573 63 72 59
-0.792217 -0.07808 -3.58617 62 76 62
-0.79226 -0.0680902 -3.58662 63 75 62
-0.792303 -0.0581005 -3.58707 62 74 61
-0.792346 -0.0481107 -3.58752 61 76 62
-0.792389 -0.0381209 -3.58797 62 77 63
-0.792432 -0.0281312 -3.58842 66 81 67
-0.792474 -0.0181414 -3.58887 67 79 66
-0.792771 -0.00725215 -3.56935 65 76 63
-0.792476 0.0113781 -3.60021 75 90 76
-0.792436 0.0309078 -3.6111 68 80 71
-0.792352 0.0404478 -3.62154 67 71 67
-0.791385 0.105879 -3.72459 128 160 176
-0.791175 0.114969 -3.74502 138 161 176
-0.791218 0.124959 -3.74547 146 163 183
-0.791134 0.134499 -3.75591 157 143 168
-0.791177 0.144488 -3.75636 164 137 166
-0.79122 0.154478 -3.75681 168 139 168
-0.791389 0.164918 -3.74727 166 139 167
-0.791306 0.174458 -3.75771 178 132 157
-0.791222 0.183998 -3.76815 195 129 156
-0.791518 0.194887 -3.74862 181 136 160
-0.791434 0.204427 -3.75906 192 131 156
-0.79135 0.213967 -3.7695 198 118 148
-0.79152 0.224406 -3.75996 193 116 146
-0.791563 0.234396 -3.76041 196 108 141
-0.791479 0.243936 -3.77085 208 108 145
-0.791649 0.254376 -3.76131 203 103 140
-0.791565 0.263916 -3.77175 211 102 142
-0.791735 0.274355 -3.76221 211 101 141
-0.791778 0.284345 -3.76266 212 100 140
-0.791694 0.293885 -3.7731 210 98 137
-0.79161 0.303425 -3.78354 208 104 141
-0.791906 0.314314 -3.76401 215 111 144
-0.791949 0.324304 -3.76446 212 109 142
-0.791992 0.334294 -3.76491 209 107 139
-0.792035 0.344284 -3.76536 211 105 138
-0.792078 0.354273 -3.76581 214 108 142
-0.791994 0.363813 -3.77625 213 104 142
-0.792037 0.373803 -3.7767 213 101 141
-0.792207 0.384243 -3.76716 216 107 143
-0.792295 0.433742 -3.7794 213 93 137
-0.792211 0.443282 -3.78984 214 100 140
-0.792634 0.454621 -3.76033 213 102 139
-0.79255 0.464161 -3.77077 212 98 137
-0.792593 0.47415 -3.77122 212 102 139
-0.792636 0.48414 -3.77167 211 107 140
-0.792679 0.49413 -3.77212 214 107 141
-0.792215 0.502321 -3.81252 212 149 155
-0.792258 0.51231 -3.81297 209 146 153
-0.792681 0.523649 -3.78346 213 130 151
-0.792724 0.533639 -3.78391 207 132 148
-0.792767 0.543629 -3.78436 201 132 146
-0.792936 0.554068 -3.77482 205 134 149
-0.792852 0.563608 -3.78526 192 138 149
-0.792769 0.573148 -3.7957 190 144 154
-0.792812 0.583138 -3.79615 183 148 160
-0.792855 0.593128 -3.7966 184 152 165
-0.793024 0.603567 -3.78706 182 157 170
-0.793067 0.613557 -3.78751 181 160 173
-0.792983 0.623097 -3.79795 167 164 178
-0.792899 0.632637 -3.80839 156 169 181
-0.792942 0.642627 -3.80884 151 173 184
-0.792985 0.652617 -3.80929 155 181 191
-0.793028 0.662607 -3.80974 180 206 214
-0.793071 0.672596 -3.81019 207 222 229
-0.792286 0.925584 -3.97174 222 228 232
-0.792583 0.936473 -3.95221 222 226 228
-0.793159 1.33202 -4.06012 173 173 167
-0.791536 1.6804 -4.32606 172 171 167
-0.792133 1.76122 -4.30969 166 161 161
-0.791923 1.77031 -4.33011 166 163 162
-0.791841 1.80937 -4.35189 166 160 161
-0.791377 1.81756 -4.3923 166 161 163
-0.791083 1.83619 -4.42317 160 155 158
-0.791252 1.84663 -4.41363 154 147 150
-0.789573 -1.18323 -2.56532 31 19 16
-0.788185 -1.09962 -2.70922 26 15 12
-0.788244 -0.85347 -2.80039 30 26 20
-0.777264 -0.882609 -3.66989 60 35 27
-0.77735 -0.86263 -3.67079 58 31 23
-0.777393 -0.85264 -3.67124 58 28 21
-0.777436 -0.84265 -3.67169 58 27 21
-0.777479 -0.832661 -3.67214 57 25 19
-0.777522 -0.822671 -3.67259 55 22 16
-0.777565 -0.812681 -3.67304 51 20 12
-0.777608 -0.802691 -3.67349 51 21 14
-0.77765 -0.792701 -3.67394 49 19 13
-0.777695 -0.753192 -3.68573 40 22 16
-0.777612 -0.743652 -3.69617 37 23 18
-0.777781 -0.733213 -3.68663 36 20 16
-0.777824 -0.723223 -3.68708 35 20 14
-0.777867 -0.713233 -3.68753 33 18 13
-0.778163 -0.702344 -3.66801 36 20 11
-0.77808 -0.692804 -3.67845 32 18 12
-0.778123 -0.682814 -3.6789 33 21 15
-0.779612 -0.51029 -3.62662 28 25 25
-0.779827 -0.460341 -3.62887 31 32 29
-0.779996 -0.449901 -3.61933 33 32 30
-0.779788 -0.411292 -3.6511 26 32 27
-0.780765 -0.329125 -3.60476 34 42 31
-0.780808 -0.319135 -3.60521 33 42 31
-0.780851 -0.309145 -3.60566 34 44 33
-0.78102 -0.298706 -3.59612 35 45 33
-0.781063 -0.288716 -3.59657 35 46 34
-0.781106 -0.278726 -3.59702 37 49 37
-0.781149 -0.268736 -3.59747 33 44 32
-0.781319 -0.258297 -3.58793 37 45 34
-0.781235 -0.248757 -3.59837 31 44 32
-0.781278 -0.238767 -3.59882 31 44 31
-0.781321 -0.228777 -3.59927 37 52 38
-0.78149 -0.218338 -3.58973 41 56 41
-0.781533 -0.208348 -3.59018 53 68 53
-0.781449 -0.198808 -3.60062 61 81 64
-0.781492 -0.188818 -3.60107 60 79 62
-0.781789 -0.177929 -3.58154 58 72 57
-0.781705 -0.168389 -3.59198 55 72 56
-0.781875 -0.157949 -3.58245 54 66 52
-0.781791 -0.148409 -3.59288 54 67 53
-0.78196 -0.13797 -3.58335 57 69 55
-0.78175 -0.12888 -3.60377 62 77 62
-0.781919 -0.11844 -3.59424 66 79 64
-0.781962 -0.10845 -3.59469 67 81 66
-0.782005 -0.0984607 -3.59514 68 82 67
-0.782175 -0.0880212 -3.5856 70 82 67
-0.782218 -0.0780314 -3.58605 70 81 68
-0.782308 0.000987143 -3.60963 88 102 87
-0.78214 0.0200671 -3.63051 67 81 69
-0.782437 0.0309564 -3.61098 62 76 65
-0.782353 0.0404964 -3.62142 62 68 61
-0.782185 0.0595764 -3.6423 159 148 156
-0.78054 0.083249 -3.7835 140 151 161
-0.781259 0.105477 -3.73445 154 156 172
-0.781302 0.115467 -3.7349 148 154 171
-0.781219 0.125007 -3.74534 158 145 166
-0.780881 0.133648 -3.77576 189 127 154
-0.781178 0.144537 -3.75623 188 123 153
-0.781094 0.154077 -3.76667 199 117 150
-0.781263 0.164516 -3.75713 196 121 152
-0.78118 0.174056 -3.76757 198 117 146
-0.781223 0.184046 -3.76802 204 117 145
-0.781308 0.204026 -3.76892 207 113 145
-0.781351 0.214015 -3.76937 206 109 143
-0.781521 0.224455 -3.75983 207 107 141
-0.781437 0.233995 -3.77027 213 105 143
-0.78148 0.243985 -3.77072 214 103 143
-0.78165 0.254424 -3.76118 215 102 142
-0.781781 0.313913 -3.77388 211 99 137
-0.781866 0.333893 -3.77478 208 95 135
-0.781825 0.353422 -3.78567 213 99 139
-0.781995 0.363862 -3.77613 213 98 139
-0.782165 0.374301 -3.76659 214 97 140
-0.782124 0.393831 -3.77748 213 98 138
-0.782293 0.404271 -3.76794 214 100 141
-0.78221 0.413811 -3.77838 216 99 139
-0.782253 0.4238 -3.77883 212 96 137
-0.782295 0.43379 -3.77928 212 100 139
-0.782465 0.44423 -3.76974 212 100 139
-0.782508 0.454219 -3.77019 211 103 140
-0.782424 0.463759 -3.78063 209 110 139
-0.78234 0.473299 -3.79107 216 125 147
-0.782003 0.48194 -3.82149 205 163 154
-0.782046 0.49193 -3.82194 203 170 157
-0.782596 0.503718 -3.78243 213 138 151
-0.782639 0.513708 -3.78288 210 142 153
-0.782682 0.523698 -3.78333 205 147 155
-0.782725 0.533688 -3.78378 197 142 151
-0.782768 0.543678 -3.78423 190 147 153
-0.782684 0.553218 -3.79467 184 157 158
-0.782727 0.563207 -3.79512 177 159 162
-0.782896 0.573647 -3.78558 177 156 163
-0.782939 0.583637 -3.78603 171 160 170
-0.782855 0.593177 -3.79647 164 167 181
-0.782898 0.603166 -3.79692 158 168 183
-0.782941 0.613156 -3.79737 151 170 186
-0.782984 0.623146 -3.79783 143 173 188
-0.7829 0.632686 -3.80826 135 172 187
-0.782943 0.642676 -3.80871 129 177 190
-0.78286 0.652216 -3.81915 126 181 195
-0.782902 0.662205 -3.8196 151 198 211
-0.783072 0.672645 -3.81007 195 221 230
-0.783115 0.682635 -3.81052 212 225 233
-0.782667 0.926981 -3.94164 220 226 229
-0.782457 0.936072 -3.96207 222 228 230
-0.782753 0.946961 -3.94254 205 208 209
-0.78418 1.42422 -4.01411 173 172 168
-0.782459 1.57551 -4.2111 173 171 166
-0.781789 1.65183 -4.29462 173 172 168
-0.781664 1.6809 -4.31595 172 171 166
-0.782175 1.74174 -4.29867 165 163 161
-0.781711 1.74993 -4.33908 170 169 166
-0.781754 1.75992 -4.33953 168 166 164
-0.781037 1.76721 -4.39991 169 169 166
-0.780953 1.77675 -4.41035 168 168 164
-0.781758 1.81896 -4.36221 163 155 158
-0.778131 -1.28667 -2.6406 32 20 15
-0.779574 -1.18318 -2.56519 31 19 16
-0.767435 -0.872121 -3.66023 59 27 20
-0.767478 -0.862131 -3.66068 55 20 14
-0.767394 -0.852591 -3.67112 52 18 11
-0.767437 -0.842602 -3.67157 50 18 12
-0.76748 -0.832612 -3.67202 51 19 12
-0.767523 -0.822622 -3.67247 46 18 11
-0.767566 -0.812632 -3.67292 44 17 9
-0.767608 -0.802643 -3.67337 42 17 11
-0.767398 -0.793552 -3.6938 34 20 14
-0.767821 -0.782213 -3.66428 42 16 11
-0.767864 -0.772224 -3.66473 40 17 11
-0.767653 -0.763133 -3.68516 32 19 15
-0.767696 -0.753144 -3.68561 32 19 16
-0.768546 -0.671427 -3.64926 31 22 13
-0.768589 -0.661437 -3.64971 31 22 15
-0.768632 -0.651447 -3.65016 30 22 17
-0.768845 -0.631018 -3.64107 30 22 16
-0.769875 -0.391263 -3.65188 32 40 31
-0.770551 -0.379025 -3.60238 29 32 24
-0.770467 -0.369485 -3.61282 29 35 27
-0.77051 -0.359495 -3.61327 29 34 26
-0.770682 -0.319536 -3.61507 38 49 37
-0.770978 -0.308647 -3.59554 40 51 39
-0.771021 -0.298657 -3.59599 42 55 42
-0.771064 -0.288667 -3.59644 45 58 44
-0.771234 -0.278228 -3.58691 45 57 44
-0.77115 -0.268688 -3.59735 44 59 45
-0.771193 -0.258698 -3.5978 39 54 40
-0.771362 -0.248259 -3.58826 37 49 36
-0.771405 -0.238269 -3.58871 35 49 35
-0.771322 -0.228729 -3.59915 39 60 43
-0.771365 -0.218739 -3.5996 49 72 53
-0.771407 -0.208749 -3.60005 60 82 64
-0.771577 -0.19831 -3.59051 63 85 67
-0.771493 -0.18877 -3.60095 63 87 68
-0.771536 -0.17878 -3.6014 60 82 63
-0.771579 -0.16879 -3.60185 56 77 59
-0.771622 -0.1588 -3.6023 57 76 58
-0.771792 -0.148361 -3.59276 56 73 57
-0.771961 -0.137921 -3.58322 60 74 59
-0.771877 -0.128381 -3.59366 66 81 65
-0.77192 -0.118392 -3.59411 69 84 68
-0.77209 -0.107952 -3.58457 67 81 66
-0.77226 -0.0975126 -3.57503 71 80 67
-0.772221 -0.0484633 -3.59726 65 81 66
-0.772264 -0.0384736 -3.59771 65 81 66
-0.771759 -0.0107531 -3.64901 74 85 74
-0.772352 0.0110255 -3.60995 74 88 74
-0.772648 0.0219148 -3.59043 64 76 66
-0.772227 0.0400952 -3.63128 63 70 63
-0.77227 0.050085 -3.63173 87 87 85
-0.770668 0.0837474 -3.77338 137 157 164
-0.77126 0.105526 -3.73433 159 145 161
-0.771177 0.115066 -3.74477 169 135 156
-0.770966 0.124156 -3.76519 186 126 150
-0.771009 0.134146 -3.76565 197 125 152
-0.771052 0.144136 -3.7661 204 117 149
-0.771095 0.154125 -3.76655 205 108 142
-0.771264 0.164565 -3.75701 209 111 145
-0.771181 0.174105 -3.76745 210 107 141
-0.771224 0.184095 -3.7679 216 112 144
-0.771266 0.194084 -3.76835 212 112 143
-0.771309 0.204074 -3.7688 212 103 138
-0.771524 0.254023 -3.77105 214 96 136
-0.771567 0.264013 -3.7715 213 94 134
-0.77161 0.274003 -3.77195 212 94 133
-0.771653 0.283992 -3.7724 213 95 134
-0.771696 0.293982 -3.77285 213 97 135
-0.771738 0.303972 -3.7733 212 100 136
-0.771908 0.314411 -3.76376 212 101 138
-0.771824 0.323951 -3.7742 215 106 142
-0.771994 0.334391 -3.76466 209 101 137
-0.77191 0.343931 -3.7751 215 105 142
-0.771953 0.353921 -3.77555 217 107 144
-0.772123 0.36436 -3.76601 214 106 145
-0.772039 0.3739 -3.77645 216 107 144
-0.772082 0.38389 -3.7769 215 108 145
-0.772125 0.39388 -3.77735 216 111 146
-0.772168 0.403869 -3.7778 216 112 148
-0.772211 0.413859 -3.77825 217 116 150
-0.772253 0.423849 -3.7787 217 114 146
-0.772296 0.433839 -3.77916 218 123 149
-0.772213 0.443379 -3.78959 213 129 146
-0.772382 0.453818 -3.78006 212 126 146
-0.772298 0.463358 -3.7905 204 134 140
-0.772468 0.473798 -3.78096 208 135 146
-0.771877 0.481539 -3.83135 205 192 170
-0.771794 0.491079 -3.84179 193 203 178
-0.772343 0.502868 -3.80229 205 172 156
-0.771879 0.511058 -3.84269 184 202 186
-0.772429 0.522847 -3.80319 198 177 165
-0.772599 0.533287 -3.79365 193 179 169
-0.772642 0.543276 -3.7941 187 182 177
-0.772685 0.553266 -3.79455 175 178 177
-0.772601 0.562806 -3.80499 164 179 178
-0.77277 0.573246 -3.79545 155 175 181
-0.772687 0.582786 -3.80589 142 175 185
-0.77273 0.592775 -3.80634 136 175 191
-0.772815 0.612755 -3.80724 121 177 196
-0.772732 0.622295 -3.81768 108 181 203
-0.772901 0.632734 -3.80814 111 175 194
-0.772944 0.642724 -3.80859 111 179 196
-0.77286 0.652264 -3.81903 112 181 198
-0.772903 0.662254 -3.81948 141 195 210
-0.771806 0.668196 -3.90983 159 202 215
-0.772458 0.93612 -3.96195 221 227 230
-0.772501 0.94611 -3.9624 215 219 220
-0.772249 0.97473 -3.99372 188 190 187
-0.77435 1.43471 -4.00444 172 171 167
-0.774266 1.44425 -4.01488 173 171 167
-0.773549 1.45154 -4.07527 172 172 167
-0.773592 1.46153 -4.07572 171 171 166
-0.771922 1.74089 -4.31853 168 167 165
-0.772092 1.75133 -4.30899 166 164 163
-0.771628 1.75952 -4.34939 167 166 164
-0.770954 1.7768 -4.41023 167 167 164
-0.771379 1.81766 -4.39205 165 161 162
-0.771211 1.83674 -4.41293 165 160 162
-0.771381 1.84718 -4.40339 161 152 156
-0.768175 -1.27664 -2.64093 32 20 15
-0.768091 -1.2671 -2.65137 32 20 15
-0.768134 -1.25711 -2.65182 33 20 16
-0.767637 -1.11131 -2.74848 24 16 13
-0.757013 -0.883412 -3.68962 37 18 9
-0.757436 -0.872073 -3.6601 51 18 13
-0.757479 -0.862083 -3.66055 49 17 12
-0.757648 -0.851643 -3.65101 50 18 14
-0.757564 -0.842103 -3.66145 43 15 9
-0.757607 -0.832114 -3.6619 40 16 9
-0.75765 -0.822124 -3.66235 39 16 9
-0.757566 -0.812584 -3.67279 35 19 11
-0.757736 -0.802144 -3.66325 37 16 9
-0.757779 -0.792155 -3.6637 36 17 11
-0.757822 -0.782165 -3.66416 34 17 12
-0.757611 -0.773075 -3.68458 30 21 16
-0.757781 -0.762635 -3.67504 29 20 15
-0.758504 -0.681368 -3.64868 28 23 18
-0.758547 -0.671378 -3.64913 29 23 19
-0.760254 -0.419385 -3.61044 33 37 32
-0.760423 -0.408946 -3.60091 31 36 29
-0.76034 -0.399406 -3.61134 32 39 31
-0.760509 -0.388966 -3.60181 33 38 30
-0.760552 -0.378976 -3.60226 33 38 30
-0.760595 -0.368987 -3.60271 32 39 30
-0.760638 -0.358997 -3.60316 30 37 28
-0.760936 -0.318588 -3.59497 34 45 32
-0.760852 -0.309048 -3.60541 45 59 45
-0.761022 -0.298608 -3.59587 51 66 52
-0.760938 -0.289069 -3.60631 56 73 57
-0.761108 -0.278629 -3.59677 57 73 57
-0.761151 -0.268639 -3.59722 49 66 50
-0.761194 -0.258649 -3.59767 43 62 44
-0.761363 -0.24821 -3.58813 41 59 43
-0.761533 -0.23777 -3.57859 44 60 44
-0.761196 -0.22913 -3.60901 54 81 60
-0.761619 -0.217791 -3.57949 55 73 56
-0.761662 -0.207801 -3.57994 58 80 61
-0.761578 -0.198261 -3.59038 66 91 70
-0.761621 -0.188271 -3.59083 66 90 69
-0.76179 -0.177832 -3.5813 66 86 68
-0.76158 -0.168742 -3.60172 79 103 83
-0.761876 -0.157852 -3.5822 61 80 61
-0.761711 -0.109253 -3.61442 66 81 67
-0.761754 -0.0992631 -3.61487 64 80 65
-0.761923 -0.0888235 -3.60533 63 79 64
-0.76184 -0.0792835 -3.61577 61 77 63
-0.761882 -0.0692938 -3.61622 58 76 61
-0.762095 -0.0488645 -3.60713 61 77 63
-0.762138 -0.0388747 -3.60758 60 76 62
-0.761887 -0.0102548 -3.6389 71 82 70
-0.761929 -0.000264992 -3.63935 85 97 85
-0.762522 0.0215136 -3.60029 67 80 69
-0.762228 0.0401438 -3.63116 63 73 63
-0.761891 0.0487843 -3.66158 85 81 77
-0.760415 0.0828964 -3.79324 129 162 173
-0.761051 0.114665 -3.75463 172 124 146
-0.761094 0.124655 -3.75508 175 108 133
-0.761053 0.144184 -3.76597 201 105 138
-0.760969 0.153724 -3.77641 218 105 144
-0.761312 0.233642 -3.78001 213 97 137
-0.761228 0.243182 -3.79045 218 103 141
-0.761271 0.253172 -3.7909 220 106 143
-0.761568 0.264061 -3.77137 215 101 138
-0.761611 0.274051 -3.77183 214 104 139
-0.761654 0.284041 -3.77228 214 104 138
-0.761696 0.294031 -3.77273 216 111 142
-0.761359 0.302671 -3.80314 215 128 151
-0.761275 0.312211 -3.81358 208 138 158
-0.761699 0.32355 -3.78407 218 121 148
-0.761868 0.33399 -3.77453 218 120 150
-0.761404 0.34218 -3.81493 199 139 155
-0.761447 0.35217 -3.81538 196 140 157
-0.76149 0.36216 -3.81583 196 139 156
-0.76166 0.372599 -3.8063 202 131 150
-0.761576 0.382139 -3.81674 191 148 159
-0.762126 0.393928 -3.77723 211 127 153
-0.762169 0.403918 -3.77768 208 130 153
-0.761958 0.413008 -3.79811 202 138 150
-0.762001 0.422998 -3.79856 205 145 153
-0.762171 0.433438 -3.78902 207 143 150
-0.762213 0.443427 -3.78947 208 150 153
-0.76213 0.452967 -3.79991 207 166 156
-0.762173 0.462957 -3.80036 210 178 161
-0.762258 0.482937 -3.80126 209 182 161
-0.762301 0.492926 -3.80171 209 189 166
-0.762344 0.502916 -3.80216 207 198 173
-0.762134 0.512006 -3.82259 185 200 174
-0.76243 0.522896 -3.80306 188 196 172
-0.762473 0.532885 -3.80351 181 198 180
-0.762516 0.542875 -3.80396 172 195 184
-0.762559 0.552865 -3.80441 161 189 184
-0.762602 0.562855 -3.80486 147 186 187
-0.762645 0.572844 -3.80531 139 183 190
-0.762561 0.582384 -3.81575 124 184 198
-0.762604 0.592374 -3.8162 111 184 204
-0.762816 0.612803 -3.80711 102 179 205
-0.762733 0.622343 -3.81755 97 180 206
-0.762775 0.632333 -3.818 90 177 201
-0.762692 0.641873 -3.82844 91 178 202
-0.762608 0.651413 -3.83888 92 176 198
-0.762778 0.661853 -3.82934 116 183 199
-0.761807 0.668244 -3.90971 162 200 214
-0.763117 0.682732 -3.81027 197 221 231
-0.762459 0.936169 -3.96182 221 227 230
-0.762502 0.946159 -3.96227 216 221 222
-0.761997 0.973879 -4.01357 197 200 197
-0.76372 1.46203 -4.0656 171 171 166
-0.763309 1.62781 -4.16316 166 163 160
-0.762128 1.64329 -4.26395 174 173 169
-0.76226 1.7323 -4.28798 167 165 163
-0.762177 1.74184 -4.29842 169 167 165
-0.76222 1.75183 -4.29887 167 163 162
-0.761165 1.76776 -4.38968 168 168 165
-0.761085 1.83634 -4.42279 164 160 162
-0.761002 1.84588 -4.43323 160 155 158
-0.760791 1.85497 -4.45366 157 152 154
-0.749838 -1.56196 -3.19847 31 23 19
-0.756105 -1.29377 -2.80018 26 17 14
-0.758176 -1.27659 -2.64081 30 18 13
-0.758092 -1.26705 -2.65124 32 20 15
-0.758135 -1.25706 -2.65169 32 20 16
-0.758433 -1.21665 -2.64351 32 19 16
-0.747052 -0.932412 -3.66726 53 17 15
-0.747011 -0.912883 -3.67815 44 17 13
-0.746928 -0.903343 -3.68859 39 23 16
-0.746971 -0.893353 -3.68904 37 25 17
-0.747014 -0.883363 -3.68949 31 20 12
-0.747056 -0.873373 -3.68994 29 23 14
-0.747606 -0.861585 -3.65044 44 18 14
-0.747649 -0.851595 -3.65089 41 16 12
-0.747565 -0.842055 -3.66133 35 17 12
-0.747608 -0.832065 -3.66178 32 17 10
-0.747778 -0.821626 -3.65224 33 17 10
-0.747694 -0.812086 -3.66268 32 18 10
-0.747737 -0.802096 -3.66313 31 18 12
-0.74778 -0.792106 -3.66358 30 21 15
-0.747949 -0.781666 -3.65404 30 19 14
-0.749149 -0.531473 -3.65531 27 30 25
-0.749192 -0.521483 -3.65576 25 29 24
-0.750255 -0.419337 -3.61032 30 38 31
-0.750298 -0.409347 -3.61077 32 41 32
-0.750467 -0.398907 -3.60123 33 39 30
-0.75051 -0.388918 -3.60168 35 42 33
-0.75068 -0.378478 -3.59214 38 44 35
-0.750723 -0.368488 -3.59259 37 42 33
-0.750766 -0.358498 -3.59304 35 40 31
-0.750851 -0.338519 -3.59394 33 41 31
-0.750768 -0.328979 -3.60438 34 45 33
-0.75081 -0.318989 -3.60483 39 52 39
-0.750853 -0.308999 -3.60528 45 60 46
-0.750896 -0.29901 -3.60573 54 71 56
-0.750939 -0.28902 -3.60618 59 78 61
-0.750982 -0.27903 -3.60663 62 83 65
-0.751152 -0.268591 -3.5971 54 74 55
-0.751195 -0.258601 -3.59755 50 73 53
-0.751491 -0.247712 -3.57802 47 65 48
-0.751534 -0.237722 -3.57847 47 65 47
-0.751704 -0.227282 -3.56893 50 69 51
-0.751536 -0.208202 -3.58981 77 105 83
-0.751748 -0.187773 -3.58072 69 95 74
-0.751411 -0.179133 -3.61114 69 94 74
-0.751581 -0.168693 -3.6016 73 96 76
-0.751497 -0.159153 -3.61204 60 80 61
-0.751583 -0.139174 -3.61294 57 72 57
-0.751585 -0.109654 -3.62428 61 76 62
-0.751628 -0.0996643 -3.62473 62 78 64
-0.751798 -0.0892247 -3.61519 63 79 65
-0.75163 -0.0701447 -3.63607 63 78 66
-0.752306 -0.0579062 -3.58657 62 77 63
-0.752349 -0.0479164 -3.58703 62 77 63
-0.751761 -0.0106559 -3.64876 76 86 76
-0.752396 0.0211124 -3.61016 68 81 69
-0.752312 0.0306524 -3.6206 62 75 64
-0.752102 0.0397426 -3.64102 67 72 63
-0.751892 0.0488329 -3.66145 70 70 65
-0.750416 0.082945 -3.79311 122 165 174
-0.750968 0.124253 -3.76495 169 84 114
-0.751011 0.134243 -3.7654 183 91 121
-0.750927 0.143783 -3.77584 204 95 130
-0.75097 0.153773 -3.77629 220 103 143
-0.75127 0.223701 -3.77944 219 102 141
-0.75144 0.234141 -3.7699 215 103 141
-0.751229 0.243231 -3.79033 221 109 145
-0.751146 0.252771 -3.80077 216 111 144
-0.751569 0.26411 -3.77125 217 111 145
-0.751485 0.27365 -3.78169 219 119 150
-0.751274 0.28274 -3.80212 215 125 151
-0.751191 0.29228 -3.81256 201 141 161
-0.751233 0.30227 -3.81301 198 145 164
-0.751657 0.313609 -3.78349 216 134 155
-0.751573 0.323149 -3.79393 206 136 153
-0.751616 0.333139 -3.79438 204 137 154
-0.751659 0.343129 -3.79483 199 134 152
-0.751701 0.353118 -3.79528 197 136 153
-0.751744 0.363108 -3.79573 194 139 155
-0.751661 0.372648 -3.80617 185 150 163
-0.75183 0.383088 -3.79663 191 148 158
-0.752 0.393527 -3.78709 190 150 159
-0.751789 0.402617 -3.80752 185 169 170
-0.751959 0.413057 -3.79798 192 160 162
-0.752002 0.423047 -3.79843 198 170 167
-0.752045 0.433036 -3.79888 204 179 170
-0.752088 0.443026 -3.79933 209 190 176
-0.752004 0.452566 -3.80977 197 194 173
-0.752047 0.462556 -3.81022 194 195 170
-0.752216 0.472995 -3.80069 202 199 174
-0.752133 0.482535 -3.81112 193 204 176
-0.752049 0.492075 -3.82156 187 207 182
-0.752345 0.502965 -3.80204 190 206 178
-0.752261 0.512505 -3.81248 180 211 186
-0.752304 0.522494 -3.81293 168 205 185
-0.752347 0.532484 -3.81338 163 207 196
-0.75239 0.542474 -3.81383 155 208 202
-0.752433 0.552464 -3.81428 142 200 200
-0.752476 0.562453 -3.81473 124 193 200
-0.752478 0.591973 -3.82607 91 176 202
-0.752521 0.601963 -3.82652 87 175 203
-0.752691 0.612402 -3.81698 86 177 205
-0.752607 0.621942 -3.82742 79 174 201
-0.75265 0.631932 -3.82787 77 173 199
-0.752693 0.641922 -3.82832 82 174 198
-0.752736 0.651912 -3.82877 88 176 196
-0.752525 0.661002 -3.8492 108 188 205
-0.751934 0.668743 -3.89959 170 203 215
-0.751977 0.678732 -3.90004 188 214 223
-0.753161 0.69277 -3.81059 209 223 230
-0.752249 0.945308 -3.98213 224 230 231
-0.752545 0.956197 -3.9626 205 208 208
-0.7535 1.32357 -4.02921 178 178 172
-0.753183 1.6274 -4.17302 167 165 162
-0.752255 1.64379 -4.25384 171 170 166
-0.752171 1.65333 -4.26428 173 172 167
-0.751581 1.66107 -4.31467 172 172 167
-0.752388 1.73279 -4.27787 168 166 163
-0.752051 1.74144 -4.30829 169 169 166
-0.751634 1.81865 -4.37182 168 162 164
-0.750792 1.85502 -4.45354 159 155 157
-0.748136 -1.25701 -2.65157 30 19 16
-0.748178 -1.24702 -2.65202 31 21 17
-0.73701 -0.942354 -3.66669 43 16 12
-0.737223 -0.921924 -3.6576 45 16 14
-0.737182 -0.902395 -3.66849 38 17 12
-0.736971 -0.893304 -3.68892 31 26 17
-0.737014 -0.883315 -3.68937 27 23 15
-0.737184 -0.872875 -3.67983 29 24 15
-0.737734 -0.861086 -3.64033 37 15 13
-0.73765 -0.851546 -3.65076 35 16 12
-0.737693 -0.841556 -3.65121 32 19 15
-0.737736 -0.831567 -3.65167 29 19 13
-0.737779 -0.821577 -3.65212 26 18 11
-0.737822 -0.811587 -3.65257 26 20 12
-0.737865 -0.801597 -3.65302 28 22 15
-0.738077 -0.781168 -3.64393 26 20 16
-0.7383 -0.613141 -3.69154 25 29 25
-0.738343 -0.603152 -3.69199 25 30 25
-0.740382 -0.418838 -3.60021 33 40 33
-0.740595 -0.398409 -3.59112 35 42 34
-0.740638 -0.388419 -3.59157 36 43 35
-0.740681 -0.378429 -3.59202 38 44 36
-0.740723 -0.36844 -3.59247 39 45 36
-0.74064 -0.3589 -3.60291 42 51 41
-0.740683 -0.34891 -3.60336 43 51 41
-0.740726 -0.33892 -3.60381 43 52 41
-0.740642 -0.32938 -3.61425 48 61 47
-0.741191 -0.317591 -3.57474 44 52 41
-0.741024 -0.298511 -3.59562 51 69 53
-0.741067 -0.288522 -3.59607 58 76 59
-0.74111 -0.278532 -3.59652 61 82 63
-0.741153 -0.268542 -3.59697 63 87 67
-0.741069 -0.259002 -3.60741 76 105 83
-0.741112 -0.249012 -3.60786 76 108 84
-0.741155 -0.239023 -3.60831 74 110 84
-0.741198 -0.229033 -3.60876 70 110 82
-0.741241 -0.219043 -3.60921 77 117 89
-0.741283 -0.209053 -3.60966 77 116 88
-0.741326 -0.199064 -3.61011 71 107 80
-0.741243 -0.189524 -3.62055 64 96 72
-0.741666 -0.178184 -3.59104 73 101 79
-0.741708 -0.168195 -3.59149 65 89 69
-0.741625 -0.158655 -3.60193 55 78 58
-0.742144 0.0202614 -3.63001 82 94 81
-0.742313 0.030701 -3.62047 71 82 71
-0.742146 0.049781 -3.64135 64 70 65
-0.739824 0.061215 -3.83204 115 153 155
-0.74029 0.0825438 -3.80298 122 166 174
-0.740587 0.0934331 -3.78345 116 133 148
-0.740715 0.123402 -3.7848 153 70 99
-0.740971 0.153821 -3.77616 218 96 136
-0.740676 0.172452 -3.80703 219 98 140
-0.740719 0.182441 -3.80748 215 101 142
-0.741016 0.193331 -3.78795 214 99 137
-0.741185 0.20377 -3.77841 216 100 137
-0.741102 0.21331 -3.78885 217 103 139
-0.741144 0.2233 -3.7893 216 107 141
-0.741314 0.233739 -3.77976 215 107 141
-0.741357 0.243729 -3.78021 215 114 146
-0.7414 0.253719 -3.78066 212 115 146
-0.741443 0.263709 -3.78111 210 118 147
-0.741359 0.273249 -3.79155 207 132 156
-0.741275 0.282789 -3.80199 199 146 168
-0.741445 0.293228 -3.79245 204 144 165
-0.741488 0.303218 -3.79291 201 147 167
-0.741404 0.312758 -3.80334 180 155 173
-0.741574 0.323198 -3.79381 194 146 163
-0.741617 0.333187 -3.79426 185 148 162
-0.741659 0.343177 -3.79471 183 149 165
-0.741702 0.353167 -3.79516 179 152 166
-0.741745 0.363157 -3.79561 177 154 167
-0.741661 0.372697 -3.80605 164 163 173
-0.741831 0.383136 -3.79651 172 166 173
-0.741747 0.392676 -3.80695 163 176 178
-0.74179 0.402666 -3.8074 164 181 179
-0.741833 0.412656 -3.80785 172 185 180
-0.741876 0.422645 -3.8083 170 195 184
-0.741792 0.432185 -3.81874 168 196 184
-0.741962 0.442625 -3.8092 183 201 183
-0.742005 0.452615 -3.80965 183 208 187
-0.741921 0.462155 -3.82009 175 212 193
-0.742091 0.472594 -3.81055 177 209 185
-0.742134 0.482584 -3.811 170 206 186
-0.742176 0.492574 -3.81145 170 207 189
-0.742219 0.502563 -3.8119 162 206 192
-0.742262 0.512553 -3.81235 152 203 191
-0.742305 0.522543 -3.8128 143 196 187
-0.742348 0.532533 -3.81325 131 194 193
-0.742391 0.542523 -3.8137 119 189 194
-0.742434 0.552512 -3.81415 112 187 197
-0.742223 0.561603 -3.83458 88 178 197
-0.742393 0.572042 -3.82504 88 180 201
-0.742309 0.581582 -3.83548 81 176 201
-0.742352 0.591572 -3.83593 82 175 201
-0.742522 0.602011 -3.82639 76 174 201
-0.742565 0.612001 -3.82684 78 177 205
-0.742608 0.621991 -3.82729 77 178 205
-0.742651 0.631981 -3.82774 77 181 207
-0.74282 0.64242 -3.81821 84 178 201
-0.742863 0.65241 -3.81866 96 178 197
-0.742526 0.66105 -3.84907 113 185 200
-0.742315 0.670141 -3.8695 152 204 215
-0.742105 0.679231 -3.88993 189 214 222
-0.742123 0.944906 -3.99199 224 230 233
-0.742546 0.956246 -3.96247 206 210 210
-0.743458 1.31363 -4.02863 173 173 167
-0.744525 1.47481 -4.00587 172 170 166
-0.742632 1.58615 -4.20107 173 172 167
-0.742422 1.59524 -4.22149 173 172 166
-0.743352 1.60837 -4.15202 170 168 164
-0.743311 1.6279 -4.16291 171 167 164
-0.743143 1.64698 -4.18379 171 168 165
-0.741708 1.66157 -4.30456 174 174 169
-0.741498 1.67066 -4.32499 173 173 168
-0.741966 1.7215 -4.30726 168 168 165
-0.742389 1.73284 -4.27774 167 165 163
-0.742305 1.74238 -4.28818 166 164 162
-0.741216 1.8664 -4.4239 151 141 145
-0.738179 -1.24697 -2.6519 27 18 15
-0.738222 -1.23698 -2.65235 28 18 14
-0.738772 -1.22519 -2.61284 30 19 16
-0.727181 -0.931865 -3.65703 38 16 13
-0.727224 -0.921876 -3.65748 34 16 13
-0.72714 -0.912336 -3.66792 31 19 13
-0.727183 -0.902346 -3.66837 30 20 14
-0.727099 -0.892806 -3.67881 29 27 17
-0.727142 -0.882816 -3.67926 26 25 15
-0.727692 -0.871027 -3.63975 34 16 14
-0.727861 -0.860588 -3.63021 35 16 14
-0.727904 -0.850598 -3.63066 32 16 15
-0.72782 -0.841058 -3.6411 28 18 15
-0.727737 -0.831518 -3.65154 26 24 17
-0.72778 -0.821528 -3.65199 25 23 16
-0.727949 -0.811089 -3.64245 23 20 14
-0.727908 -0.791559 -3.65334 27 27 21
-0.727951 -0.781569 -3.65379 25 26 20
-0.728121 -0.77113 -3.64425 26 24 19
-0.730469 -0.39881 -3.60098 39 47 39
-0.730639 -0.388371 -3.59144 44 50 42
-0.730428 -0.37928 -3.61187 46 55 44
-0.730598 -0.368841 -3.60233 46 56 45
-0.730767 -0.358401 -3.59279 44 53 42
-0.730937 -0.347962 -3.58325 41 47 37
-0.730853 -0.338422 -3.59369 45 54 43
-0.731023 -0.327982 -3.58416 46 55 43
-0.731156 -0.238974 -3.60819 65 105 77
-0.731198 -0.228984 -3.60864 67 111 82
-0.731241 -0.218994 -3.60909 71 117 85
-0.731284 -0.209005 -3.60954 71 115 85
-0.731201 -0.199465 -3.61998 71 111 83
-0.73137 -0.189025 -3.61044 68 104 78
-0.73116 -0.179935 -3.63087 61 89 67
-0.731583 -0.168596 -3.60135 59 85 64
-0.731245 -0.159955 -3.63177 54 74 56
-0.730825 -0.141775 -3.67262 64 80 65
-0.731037 -0.121346 -3.66354 66 84 69
-0.731207 -0.110906 -3.654 67 86 71
-0.731376 -0.100467 -3.64446 66 84 70
-0.731546 -0.0900271 -3.63492 64 82 69
-0.732096 -0.0782383 -3.59541 63 79 65
-0.732139 -0.0682485 -3.59586 65 80 67
-0.732308 -0.057809 -3.58633 65 80 67
-0.732224 -0.048269 -3.59677 63 78 66
-0.732441 0.0311993 -3.61036 65 79 68
-0.73164 0.0480305 -3.68118 71 80 72
-0.731683 0.0580202 -3.68163 112 119 117
-0.73063 0.103471 -3.78377 136 128 149
-0.7308 0.113911 -3.77423 173 118 147
-0.730886 0.13389 -3.77514 186 87 117
-0.730549 0.142531 -3.80555 193 101 130
-0.730592 0.152521 -3.806 208 103 139
-0.730634 0.16251 -3.80645 212 100 139
-0.730931 0.1734 -3.78693 218 99 139
-0.73072 0.18249 -3.80735 213 105 144
-0.73089 0.19293 -3.79782 216 108 145
-0.73106 0.203369 -3.78828 215 107 142
-0.731102 0.213359 -3.78873 212 109 143
-0.731272 0.223798 -3.77919 210 110 143
-0.731315 0.233788 -3.77964 205 115 146
-0.731104 0.242878 -3.80007 196 128 157
-0.731401 0.253768 -3.78054 201 124 152
-0.731064 0.262408 -3.81096 185 151 177
-0.73136 0.273297 -3.79143 194 151 174
-0.731276 0.282837 -3.80187 177 160 182
-0.731446 0.293277 -3.79233 184 155 175
-0.731362 0.302817 -3.80277 161 160 179
-0.731405 0.312807 -3.80322 155 160 179
-0.731448 0.322796 -3.80367 154 162 179
-0.731491 0.332786 -3.80412 152 165 180
-0.731534 0.342776 -3.80457 150 168 181
-0.731703 0.353215 -3.79503 153 166 178
-0.731746 0.363205 -3.79548 148 171 181
-0.731536 0.372295 -3.81591 133 175 186
-0.731705 0.382735 -3.80637 140 176 184
-0.731748 0.392725 -3.80682 140 182 187
-0.731791 0.402714 -3.80727 136 185 186
-0.731834 0.412704 -3.80772 148 193 190
-0.731877 0.422694 -3.80817 153 198 192
-0.73192 0.432684 -3.80862 146 194 185
-0.731963 0.442674 -3.80907 148 199 186
-0.732006 0.452663 -3.80952 152 202 188
-0.732049 0.462653 -3.80997 160 207 195
-0.732092 0.472643 -3.81043 148 202 189
-0.732008 0.482183 -3.82086 123 187 186
-0.732051 0.492173 -3.82131 116 182 185
-0.73222 0.502612 -3.81178 124 182 181
-0.732136 0.512152 -3.82222 108 182 192
-0.732179 0.522142 -3.82267 94 175 184
-0.732222 0.532132 -3.82312 95 179 194
-0.732012 0.541222 -3.84354 79 174 202
-0.732181 0.551661 -3.83401 77 174 200
-0.732224 0.561651 -3.83446 80 178 203
-0.732267 0.571641 -3.83491 77 179 205
-0.73231 0.581631 -3.83536 74 179 204
-0.732353 0.59162 -3.83581 79 180 205
-0.732523 0.60206 -3.82627 81 182 206
-0.732439 0.6116 -3.83671 87 186 208
-0.732735 0.622489 -3.81718 88 186 210
-0.732651 0.632029 -3.82762 91 190 212
-0.732188 0.64022 -3.86803 122 187 204
-0.732357 0.650659 -3.85849 115 188 204
-0.732527 0.661099 -3.84895 121 184 197
-0.732316 0.670189 -3.86938 154 197 208
-0.732233 0.679729 -3.87982 185 212 219
-0.732124 0.944955 -3.99187 224 230 232
-0.732167 0.954945 -3.99232 220 224 225
-0.732463 0.965834 -3.97279 197 199 198
-0.731125 1.14799 -4.15116 178 178 173
-0.733352 1.60842 -4.1519 171 169 165
-0.732431 1.71336 -4.26673 168 167 164
-0.732474 1.72335 -4.26718 168 166 164
-0.731382 1.81785 -4.39155 166 163 163
-0.730921 1.85556 -4.4433 163 159 160
-0.73109 1.866 -4.43376 159 151 155
-0.728266 -1.22694 -2.65267 28 18 15
-0.728691 -1.18608 -2.6345 31 21 17
-0.717182 -0.931817 -3.6569 29 18 14
-0.717225 -0.921827 -3.65735 28 19 15
-0.717648 -0.910488 -3.62784 36 18 17
-0.71731 -0.901848 -3.65825 28 23 16
-0.717353 -0.891858 -3.6587 28 23 16
-0.71765 -0.880969 -3.63918 31 20 16
-0.717819 -0.870529 -3.62964 31 18 15
-0.717862 -0.860539 -3.63009 26 14 12
-0.717905 -0.85055 -3.63054 25 15 13
-0.717821 -0.84101 -3.64098 24 21 17
-0.717864 -0.83102 -3.64143 25 23 19
-0.717907 -0.82103 -3.64188 24 23 18
-0.71795 -0.81104 -3.64233 23 24 19
-0.717993 -0.801051 -3.64278 26 26 20
-0.718036 -0.791061 -3.64323 29 29 23
-0.718079 -0.781071 -3.64368 29 29 23
-0.720129 -0.44916 -3.60859 35 38 32
-0.720298 -0.438721 -3.59906 35 36 31
-0.720468 -0.428281 -3.58952 37 39 34
-0.720511 -0.418291 -3.58997 40 43 37
-0.72068 -0.407852 -3.58043 46 47 41
-0.72047 -0.398762 -3.60086 43 50 41
-0.720639 -0.388322 -3.59132 42 50 41
-0.720682 -0.378332 -3.59177 45 52 43
-0.720768 -0.358353 -3.59267 48 57 45
-0.721114 -0.248915 -3.60761 65 105 79
-0.721156 -0.238925 -3.60806 66 112 83
-0.721199 -0.228936 -3.60851 68 118 87
-0.721116 -0.219396 -3.61895 78 130 97
-0.721159 -0.209406 -3.6194 78 127 95
-0.721201 -0.199416 -3.61985 75 118 89
-0.721244 -0.189426 -3.6203 70 108 81
-0.721414 -0.178987 -3.61076 63 96 72
-0.721457 -0.168997 -3.61121 59 88 66
-0.7215 -0.159007 -3.61166 57 82 61
-0.721165 -0.120847 -3.65342 68 86 71
-0.720954 -0.111757 -3.67385 74 90 76
-0.72125 -0.100868 -3.65432 71 89 75
-0.722054 -0.0881795 -3.59484 65 81 67
-0.722097 -0.0781897 -3.59529 66 80 67
-0.722266 -0.0677502 -3.58575 65 80 67
-0.722182 -0.0582102 -3.59619 65 80 67
-0.722099 -0.0486702 -3.60663 66 80 68
-0.721888 -0.03958 -3.62706 69 82 71
-0.721892 0.0194591 -3.64974 95 111 97
-0.721935 0.0294488 -3.65019 65 82 67
-0.721894 0.0489786 -3.66108 69 81 72
-0.72181 0.0585186 -3.67152 83 91 88
-0.719955 0.0912814 -3.83314 144 160 171
-0.72021 0.1217 -3.82451 173 120 143
-0.720633 0.13304 -3.79499 189 107 133
-0.720803 0.143479 -3.78545 201 103 133
-0.720592 0.152569 -3.80588 200 113 146
-0.720635 0.162559 -3.80633 201 109 145
-0.720805 0.172999 -3.79679 206 109 147
-0.720848 0.182988 -3.79724 202 110 147
-0.720891 0.192978 -3.79769 199 117 153
-0.72106 0.203418 -3.78815 203 118 152
-0.720977 0.212958 -3.79859 191 125 155
-0.72102 0.222947 -3.79904 187 130 158
-0.721062 0.232937 -3.79949 186 133 162
-0.721105 0.242927 -3.79994 183 143 171
-0.721148 0.252917 -3.80039 170 153 180
-0.721065 0.262457 -3.81083 157 157 183
-0.721107 0.272446 -3.81128 148 158 183
-0.72115 0.282436 -3.81173 139 163 186
-0.721193 0.292426 -3.81218 128 163 185
-0.721363 0.302865 -3.80264 125 158 180
-0.721406 0.312855 -3.8031 122 162 182
-0.721322 0.322395 -3.81353 116 168 188
