ply
format ascii 1.0
element face 0
property list uchar int vertex_indices
element vertex 1314
property float x
property float y
property float z
property uchar diffuse_red
property uchar diffuse_green
property uchar diffuse_blue
end_header
-1.93181 1.34863 -2.98001 22 13 8
-1.94528 1.35656 -2.99599 20 11 8
-1.95876 1.36449 -3.01197 19 12 9
-1.92696 1.41984 -2.94251 14 8 8
-1.95882 1.45505 -2.97325 12 7 6
-1.97476 1.47265 -2.98862 11 6 5
-1.35867 -1.23628 -3.28175 28 17 13
-1.23623 -1.17665 -3.08012 30 19 15
-1.23869 -1.16698 -3.07951 30 19 14
-1.27182 -1.08166 -3.09058 28 18 15
-1.27679 -0.971752 -3.05062 28 17 13
-1.35341 -0.873185 -3.11855 29 17 13
-1.35019 -0.208526 -2.82904 29 19 16
-1.64024 0.369471 -2.99842 19 13 11
-1.65066 0.387948 -3.00549 18 13 11
-1.65006 0.408168 -2.99597 18 13 10
-1.6415 0.419586 -2.97875 18 13 11
-1.64395 0.429261 -2.97814 18 13 11
-1.62131 0.45297 -2.93542 14 11 9
-1.61826 0.463516 -2.9265 14 11 9
-1.62071 0.47319 -2.92589 14 11 9
-1.62317 0.482864 -2.92527 15 12 10
-1.80144 0.575408 -3.14197 23 14 12
-1.8094 0.58421 -3.14965 23 14 12
-1.82839 0.591268 -3.17394 23 14 11
-1.83085 0.600942 -3.17332 23 14 12
-1.82779 0.611488 -3.16441 22 14 12
-1.75861 0.6325 -3.05591 18 13 11
-1.75496 0.663266 -3.03747 18 14 9
-1.84684 0.709102 -3.14997 22 14 11
-1.82996 1.09416 -2.96065 26 15 12
-1.90286 1.13294 -3.04886 26 15 11
-1.99295 1.23944 -3.13278 22 14 12
-1.9887 1.29043 -3.10481 21 13 10
-2.00769 1.29748 -3.12909 16 10 8
-2.01015 1.30716 -3.12847 20 12 10
-2.0126 1.31683 -3.12786 23 14 12
-1.92689 1.34046 -2.99446 22 13 9
-1.92934 1.35013 -2.99385 21 12 8
-1.91898 1.42221 -2.94806 13 8 7
-1.95882 1.46622 -2.98648 11 6 5
-1.96127 1.4759 -2.98586 13 8 6
-2.00111 1.51991 -3.02429 11 6 5
-1.22521 -1.16373 -3.07675 29 18 14
-1.38568 -1.11869 -3.28822 29 18 13
-1.26331 -0.968503 -3.04787 28 17 13
-1.49866 -0.673674 -3.25996 28 18 14
-1.44296 -0.644733 -3.16745 27 17 13
-1.34023 -0.417156 -2.92218 29 16 13
-1.64514 0.399999 -3.01042 20 13 11
-1.63352 0.421963 -2.9843 19 14 12
-1.62376 0.473823 -2.94803 15 11 9
-1.62071 0.484369 -2.93912 15 11 10
-1.78795 0.578657 -3.13922 23 15 12
-1.80143 0.586587 -3.1552 23 15 13
-1.82042 0.593644 -3.17948 25 16 14
-1.82287 0.603319 -3.17887 24 16 14
-1.82533 0.612993 -3.17825 23 15 12
-1.75615 0.634004 -3.06975 19 13 11
-1.46665 0.871013 -2.55185 25 18 12
-1.82917 0.853894 -3.08052 25 14 10
-1.83163 0.863569 -3.07991 25 15 10
-1.50655 1.00558 -2.55155 25 17 13
-1.81707 1.07719 -2.96742 28 17 14
-1.83055 1.08512 -2.9834 28 17 14
-1.8275 1.09567 -2.97449 28 17 14
-1.58688 1.16394 -2.5992 25 17 12
-1.90531 1.15379 -3.06148 26 15 12
-1.92376 1.27163 -3.03751 23 14 10
-1.93173 1.28043 -3.04519 23 15 10
-1.9397 1.28923 -3.05288 24 15 11
-1.99972 1.29986 -3.13463 18 11 8
-2.00217 1.30953 -3.13402 22 14 10
-2.00463 1.31921 -3.13341 24 14 12
-1.92137 1.35251 -2.9994 22 13 8
-1.95084 1.4686 -2.99202 11 6 6
-1.9533 1.47828 -2.99141 12 7 6
-1.99313 1.52229 -3.02983 10 5 5
-1.3317 -1.22978 -3.27624 25 16 12
-1.29995 -1.08388 -3.16806 26 16 12
-1.60152 0.216822 -3.04424 23 16 15
-1.61572 0.385643 -2.9923 20 14 12
-1.61333 0.466525 -2.95419 16 12 9
-1.6213 0.475327 -2.96188 16 12 9
-1.79345 0.588963 -3.16075 23 14 12
-1.7408 0.607359 -3.07714 20 12 9
-1.8149 0.605695 -3.18441 24 16 14
-1.81735 0.61537 -3.1838 24 15 13
-1.75368 0.635509 -3.0836 20 13 11
-1.81921 0.645264 -3.17366 23 15 12
-1.47641 0.830332 -2.60135 20 15 12
-1.83162 0.874747 -3.09314 25 15 10
-1.81461 1.0787 -2.98126 24 13 10
-1.82258 1.0875 -2.98895 27 16 13
-1.81952 1.09804 -2.98004 26 16 13
-1.82198 1.10772 -2.97942 28 17 15
-1.5789 1.16631 -2.60475 25 17 13
-1.9059 1.14475 -3.08423 27 15 12
-1.91579 1.27401 -3.04305 23 14 10
-1.92375 1.28281 -3.05074 24 15 10
-1.92621 1.29248 -3.05012 25 15 11
-1.93418 1.30128 -3.05781 25 15 11
-1.98072 1.30398 -3.12358 23 14 11
-1.9942 1.31191 -3.13957 22 13 11
-1.99665 1.32159 -3.13895 24 14 12
-1.93736 1.47185 -2.98927 11 6 6
-1.59355 0.219199 -3.04979 23 16 14
-1.56546 0.334336 -2.96004 19 14 12
-1.56791 0.34401 -2.95943 19 14 12
-1.59433 0.470646 -2.94314 16 11 9
-1.6023 0.479449 -2.95082 17 12 10
-1.74325 0.628212 -3.08976 21 13 11
-1.75122 0.637014 -3.09744 21 14 12
-1.81429 0.637095 -3.18812 24 15 13
-1.81124 0.647641 -3.1792 24 16 12
-1.46598 0.823035 -2.60751 20 15 11
-1.53714 1.01303 -2.62842 26 19 16
-1.81945 1.01867 -3.03199 26 14 11
-1.8146 1.08988 -2.99449 24 14 11
-1.81706 1.09955 -2.99388 26 16 13
-1.81951 1.10922 -2.99327 26 15 13
-1.57093 1.16869 -2.61029 25 17 12
-1.90589 1.15593 -3.09746 26 14 12
-1.89679 1.27813 -3.032 25 15 10
-1.91027 1.28606 -3.04798 25 15 11
-1.91823 1.29486 -3.05567 25 15 11
-1.97274 1.30636 -3.12913 24 14 11
-1.98071 1.31516 -3.13681 25 15 12
-1.98868 1.32396 -3.1445 25 14 12
-1.99113 1.33364 -3.14388 26 14 12
-1.92932 1.38367 -3.03354 20 12 8
-1.9404 1.47248 -3.01141 12 7 7
-1.94286 1.48216 -3.0108 12 7 7
-0.896203 -1.31964 -2.72455 38 21 16
-1.27238 -1.05716 -3.15302 26 16 12
-1.32516 -0.894445 -3.15918 29 18 14
-1.41579 -0.898724 -3.29134 27 17 13
-1.38764 -0.874143 -3.24032 29 18 13
-1.55503 0.327038 -2.9662 20 13 11
-1.55748 0.336713 -2.96559 20 13 12
-1.55994 0.346387 -2.96497 22 14 13
-1.56485 0.365735 -2.96374 19 13 12
-1.80386 0.629798 -3.19428 24 15 12
-1.80632 0.639472 -3.19366 24 16 12
-1.80877 0.649146 -3.19305 25 16 12
-1.45003 0.81661 -2.60537 19 14 10
-1.62962 1.04982 -2.76367 31 19 16
-1.81214 1.09138 -3.00834 24 15 12
-1.80908 1.10193 -2.99942 24 14 11
-1.81154 1.1116 -2.99881 25 15 13
-1.81645 1.13095 -2.99758 25 14 12
-1.88882 1.2805 -3.03754 26 15 10
-1.90229 1.28843 -3.05353 25 15 11
-1.96477 1.30873 -3.13467 24 14 11
-1.97825 1.31666 -3.15066 24 14 11
-1.9807 1.32634 -3.15004 26 14 12
-1.89499 1.34997 -3.01665 26 16 12
-0.938425 -1.34533 -2.81431 35 21 15
-0.882718 -1.31639 -2.72179 40 22 17
-1.15407 -1.21845 -3.07004 30 18 13
-1.25339 -1.05304 -3.14197 27 18 13
-1.31964 -0.882394 -3.16411 28 18 13
-1.42992 -0.80928 -3.29136 28 18 14
-1.55502 0.338217 -2.97943 24 15 12
-1.55196 0.348764 -2.97052 25 15 13
-1.62001 0.458749 -3.02124 21 14 11
-1.7052 0.545898 -3.10638 23 14 12
-1.72418 0.552956 -3.13066 23 14 11
-1.73215 0.561758 -3.13835 23 15 12
-1.74012 0.57056 -3.14603 23 14 11
-1.7536 0.57849 -3.16201 24 15 13
-1.76156 0.587292 -3.1697 23 15 12
-1.73281 0.632093 -3.10915 22 14 11
-1.79834 0.641849 -3.19921 24 16 12
-1.8008 0.651523 -3.19859 24 15 12
-1.77816 0.675232 -3.15587 23 14 10
-1.45554 0.826916 -2.6269 17 13 9
-1.45799 0.836591 -2.62629 20 15 10
-1.46476 0.885834 -2.61492 23 15 11
-1.51382 0.988761 -2.64135 21 15 13
-1.62165 1.0522 -2.76922 30 18 15
-1.81153 1.12278 -3.01204 25 15 12
-1.81644 1.14213 -3.01081 25 14 12
-1.88084 1.28288 -3.04309 26 16 12
-1.89983 1.28994 -3.06737 24 15 11
-1.9078 1.29874 -3.07506 26 15 12
-1.94332 1.30318 -3.12424 22 12 9
-1.95679 1.31111 -3.14022 24 14 11
-1.95925 1.32079 -3.1396 26 14 12
-1.97273 1.32872 -3.15559 26 15 12
-1.86868 1.41562 -2.96871 15 9 9
-1.88462 1.43323 -2.98408 14 9 8
-1.89258 1.44203 -2.99177 14 8 8
-1.90055 1.45083 -2.99945 15 8 8
-0.948303 -1.2049 -2.78636 33 20 17
-1.16814 -1.21957 -3.10878 30 18 14
-1.25344 -0.951305 -3.11648 27 18 15
-1.30921 -0.889691 -3.17027 28 18 13
-1.46861 -0.623093 -3.28523 27 16 13
-1.41596 -0.604698 -3.20163 26 16 12
-1.54704 0.340594 -2.98497 27 16 14
-1.5495 0.350268 -2.98436 26 16 14
-1.60653 0.461998 -3.01848 22 15 11
-1.7352 0.56239 -3.16049 24 15 13
-1.73765 0.572065 -3.15987 22 14 12
-1.74562 0.580867 -3.16756 23 14 12
-1.7591 0.588797 -3.18354 23 15 12
-1.75604 0.599343 -3.17463 23 14 12
-1.75299 0.609889 -3.16572 23 14 11
-1.72729 0.644144 -3.11408 21 13 11
-1.77018 0.677609 -3.16142 24 14 10
-1.44756 0.829293 -2.63245 19 15 11
-1.44451 0.83984 -2.62353 21 16 11
-1.45247 0.848642 -2.63122 21 18 11
-1.44942 0.859188 -2.6223 22 17 13
-1.45433 0.878536 -2.62108 23 17 11
-1.45679 0.888211 -2.62046 24 15 11
-1.51322 1.02016 -2.64506 24 16 14
-1.89185 1.29232 -3.07292 25 15 11
-1.89431 1.30199 -3.0723 25 15 12
-1.90779 1.30992 -3.08829 26 15 12
-1.94331 1.31436 -3.13747 23 14 11
-1.9623 1.32142 -3.16175 24 14 11
-1.96475 1.33109 -3.16113 26 15 11
-1.87664 1.4356 -2.98963 15 9 8
-1.87359 1.44615 -2.98071 15 9 7
-0.923135 -1.27024 -2.7962 35 20 15
-1.39079 -0.67004 -3.21148 27 17 13
-1.43368 -0.636576 -3.25881 27 17 13
-1.19205 -0.256199 -2.74829 31 18 13
-1.55422 0.109127 -3.11254 23 17 15
-1.75112 0.591174 -3.18909 23 15 12
-1.74807 0.60172 -3.18017 22 13 11
-1.75604 0.610522 -3.18786 22 14 11
-1.71686 0.636847 -3.12024 24 15 12
-1.72483 0.645649 -3.12792 23 14 12
-1.71626 0.657068 -3.11071 24 16 12
-1.7077 0.668486 -3.0935 21 15 8
-1.43713 0.821996 -2.63861 21 16 12
-1.44204 0.841344 -2.63738 21 16 12
-1.4445 0.851019 -2.63676 22 18 11
-1.44696 0.860693 -2.63615 22 17 12
-1.4439 0.871239 -2.62724 22 17 11
-1.42683 0.984632 -2.55409 22 17 13
-1.5083 1.01199 -2.65951 23 16 13
-1.50524 1.02254 -2.6506 24 17 14
-1.50219 1.03308 -2.64169 22 15 12
-1.8704 1.28676 -3.06248 25 15 11
-1.87837 1.29556 -3.07016 26 15 11
-1.92982 1.31761 -3.13471 25 15 12
-1.95432 1.3238 -3.16729 24 15 12
-1.95924 1.34314 -3.16606 25 14 11
-0.946368 -1.303 -2.86168 36 21 16
-0.90965 -1.267 -2.79345 35 22 15
-1.38575 -0.859322 -3.30338 27 17 12
-1.43553 -0.595503 -3.2619 27 17 13
-1.26111 -0.447144 -2.94747 28 17 13
-1.27279 -0.378553 -2.93487 28 17 14
-1.28998 -0.310834 -2.93057 28 18 14
-1.2208 -0.289822 -2.82207 28 19 14
-1.69972 0.670863 -3.09905 22 16 10
-1.43407 0.843721 -2.64292 23 18 12
-1.43652 0.853395 -2.64231 22 17 12
-1.42682 0.995811 -2.56732 22 16 13
-1.45378 1.01167 -2.59928 25 18 15
-1.45072 1.02222 -2.59037 26 18 14
-1.45318 1.03189 -2.58976 26 18 14
-1.91262 1.26107 -3.15224 26 15 12
-1.88142 1.2962 -3.09231 25 14 11
-1.88387 1.30587 -3.09169 25 14 11
-1.91939 1.31031 -3.14087 24 14 10
-1.93287 1.31824 -3.15686 23 13 10
-1.94635 1.32617 -3.17284 24 14 12
-1.9488 1.33585 -3.17222 24 14 11
-1.95126 1.34552 -3.17161 25 15 11
-1.87046 1.3885 -3.03699 23 14 12
-1.88393 1.39643 -3.05297 21 12 9
-1.8919 1.40523 -3.06065 21 12 9
-1.01631 -1.98716 -3.27354 18 21 17
-1.02698 -1.60646 -3.12571 27 21 18
-0.941448 -1.31116 -2.87614 34 20 14
-1.18225 -1.10776 -3.13526 29 18 14
-1.14613 -1.09198 -3.07655 30 19 14
-1.21107 -1.06201 -3.15708 27 18 13
-1.21352 -1.05234 -3.15647 26 17 12
-1.37532 -0.866619 -3.30954 27 17 12
-1.2759 -0.287364 -2.91829 27 17 14
-1.33113 -0.114973 -2.92383 25 18 14
-1.59854 0.486733 -3.05049 20 13 12
-1.75422 0.693541 -3.18574 26 16 11
-1.39608 0.840784 -2.60759 23 17 11
-1.4316 0.845226 -2.65677 23 18 12
-1.43233 1.00612 -2.58885 24 18 15
-1.45132 1.01318 -2.61313 25 18 14
-1.43173 1.02634 -2.57932 25 19 14
-1.43418 1.03601 -2.5787 25 18 14
-1.45317 1.04307 -2.60299 25 18 13
-1.50415 1.26645 -2.58056 20 14 12
-1.50355 1.28667 -2.57103 19 14 11
-1.87344 1.29857 -3.09785 25 14 12
-1.89243 1.30563 -3.12214 24 14 11
-1.91142 1.31269 -3.14642 24 14 11
-1.91938 1.32149 -3.1541 25 14 11
-1.93837 1.32855 -3.17838 24 14 11
-1.94083 1.33822 -3.17777 25 14 11
-1.87045 1.39968 -3.05022 21 12 10
-1.00282 -1.98391 -3.27079 18 21 16
-1.00528 -1.97424 -3.27017 18 21 17
-1.19758 -1.05876 -3.15433 28 19 14
-1.20004 -1.04909 -3.15372 27 18 13
-1.14134 -0.919042 -3.01356 29 18 13
-1.28037 -0.89073 -3.20136 27 17 12
-1.36489 -0.873917 -3.3157 27 17 13
-1.36734 -0.864242 -3.31509 27 17 12
-1.36429 -0.853696 -3.30618 27 17 12
-1.39131 -0.74728 -3.29942 27 17 13
-1.44043 -0.553796 -3.28713 28 17 13
-1.44864 -0.18277 -3.13992 29 18 14
-1.30476 -0.139874 -2.91462 26 18 15
-1.55851 0.182233 -3.14147 24 16 14
-1.58811 0.479436 -3.05665 21 14 12
-1.59056 0.48911 -3.05603 20 13 12
-1.64388 0.54105 -3.11044 23 14 12
-1.69845 0.643106 -3.14517 23 14 10
-1.42549 0.877498 -2.65217 22 17 12
-1.4219 0.99882 -2.59501 21 15 12
-1.42435 1.00849 -2.59439 23 17 14
-1.43232 1.0173 -2.60208 24 17 14
-1.42375 1.02872 -2.58486 23 17 13
-1.42621 1.03839 -2.58425 24 17 14
-1.43969 1.04632 -2.60023 25 18 14
-1.86547 1.30095 -3.1034 27 14 12
-1.86792 1.31062 -3.10278 26 14 12
-1.90344 1.31507 -3.15196 25 15 12
-1.91141 1.32387 -3.15965 25 15 12
-1.9304 1.33093 -3.18393 25 14 11
-1.93285 1.3406 -3.18332 25 15 12
-1.0702 -1.93308 -3.36393 19 23 18
-0.878955 -1.30911 -2.82146 36 22 17
-0.914476 -1.30467 -2.87064 34 20 14
-1.07993 -1.14972 -3.04215 25 15 12
-1.18961 -1.05638 -3.15988 27 18 13
-1.18655 -1.04584 -3.15096 26 18 13
-1.1835 -1.03529 -3.14205 26 18 13
-1.24903 -1.02554 -3.23211 26 17 13
-1.38393 -0.765124 -3.31449 28 17 13
-1.38639 -0.755449 -3.31388 29 18 14
-1.61997 0.525823 -3.10062 20 12 11
-1.62242 0.535497 -3.1 21 13 10
-1.69047 0.645483 -3.15072 23 15 11
-0.794727 0.887867 -1.75868 31 17 10
-1.40589 0.901839 -2.63159 24 16 12
-1.42434 1.01967 -2.60762 22 16 13
-1.42129 1.03022 -2.59871 23 17 13
-1.43477 1.03815 -2.61469 24 17 13
-1.43722 1.04782 -2.61408 24 17 13
-1.8231 1.16789 -3.11755 24 13 11
-1.85749 1.30333 -3.10894 27 15 12
-1.86546 1.31213 -3.11663 26 14 12
-1.89547 1.31744 -3.15751 25 15 13
-1.90344 1.32625 -3.16519 25 15 12
-1.9114 1.33505 -3.17288 25 15 12
-1.91937 1.34385 -3.18056 25 15 11
-1.92979 1.36233 -3.18763 25 14 11
-1.17306 -1.04259 -3.14821 27 18 14
-1.37901 -0.773293 -3.32895 27 17 12
-1.38147 -0.763619 -3.32834 28 17 13
-1.40052 -0.666005 -3.31389 26 16 12
-1.18764 -0.33043 -2.86392 27 18 14
-1.2128 -0.253908 -2.86731 27 18 13
-1.68801 0.646987 -3.16456 25 17 13
-1.73701 0.659359 -3.22973 24 15 13
-1.42493 1.01063 -2.63038 24 17 14
-1.42188 1.02118 -2.62147 23 17 14
-1.41883 1.03172 -2.61255 21 15 11
-1.42679 1.04053 -2.62024 23 18 14
-1.43476 1.04933 -2.62792 23 18 13
-1.84952 1.3057 -3.11449 26 15 12
-1.85748 1.31451 -3.12217 27 15 12
-1.88995 1.32949 -3.16244 26 15 12
-1.89241 1.33917 -3.16183 26 15 12
-1.92182 1.3647 -3.19318 25 14 10
-0.923625 -1.31395 -2.92384 35 20 14
-0.749136 -1.25615 -2.64813 30 19 16
-0.784657 -1.2517 -2.69731 33 20 16
-1.15958 -1.03934 -3.14546 26 17 13
-1.1951 -1.0349 -3.19463 25 17 13
-1.32137 -0.853623 -3.29853 29 17 14
-1.37289 -0.741022 -3.32435 28 18 14
-1.35025 -0.717313 -3.28163 27 17 13
-1.38457 -0.67243 -3.31175 27 17 13
-1.38703 -0.662756 -3.31114 26 16 12
-1.34852 -0.566095 -3.21432 27 17 14
-1.5752 0.484822 -3.08988 25 16 13
-1.73454 0.660864 -3.24357 21 13 11
-1.65068 0.714386 -3.10003 23 17 12
-1.42247 1.01214 -2.64422 24 17 14
-1.42493 1.02181 -2.64361 24 17 14
-1.42187 1.03236 -2.6347 24 18 13
-1.41331 1.04378 -2.61748 24 17 13
-1.42678 1.05171 -2.63347 23 17 13
-1.8685 1.32394 -3.152 26 15 12
-1.87646 1.33274 -3.15969 27 16 13
-1.88443 1.34155 -3.16737 26 15 12
-1.91384 1.36708 -3.19872 25 14 10
-1.20671 -1.04568 -3.23399 25 17 13
-1.18713 -1.03252 -3.20018 24 17 13
-1.1658 -0.868141 -3.09906 27 17 13
-1.35084 -0.726354 -3.30439 26 17 13
-1.37906 -0.660379 -3.31669 25 16 13
-1.38397 -0.641031 -3.31546 26 17 12
-1.33317 -0.592741 -3.22171 27 17 14
-1.33809 -0.573392 -3.22048 26 16 14
-1.22308 -0.394186 -2.97829 27 17 13
-1.68488 0.589335 -3.22084 23 15 12
-1.72657 0.66324 -3.24912 21 13 11
-1.64271 0.716763 -3.10558 21 16 10
-1.63414 0.728181 -3.08837 22 16 10
-1.41881 1.05408 -2.63901 26 18 12
-1.18376 1.21203 -2.2333 31 18 15
-1.86052 1.32632 -3.15755 26 15 11
-1.86849 1.33512 -3.16523 27 15 12
-1.90587 1.36946 -3.20427 25 14 10
-1.10169 -1.47071 -3.28316 26 20 16
-1.2312 -1.02832 -3.2798 26 18 15
-1.21539 -0.864811 -3.18698 24 15 12
-1.21234 -0.854264 -3.17807 24 15 12
-1.34898 -0.74507 -3.32776 25 16 13
-1.29081 -0.725803 -3.23586 27 17 14
-1.32082 -0.720489 -3.27674 24 16 12
-1.27859 -0.683617 -3.20021 24 17 13
-1.46939 -0.180479 -3.25893 26 17 13
-1.46778 0.151851 -3.11418 22 16 15
-1.6769 0.591712 -3.22638 23 14 12
-1.65857 0.65499 -3.1729 23 16 11
-1.71859 0.665617 -3.25466 21 13 11
-1.63719 0.728814 -3.11051 24 17 12
-1.86051 1.3375 -3.17078 27 16 12
-1.87399 1.34543 -3.18676 26 15 12
-1.02368 -1.78933 -3.32558 22 22 18
-1.09617 -1.45866 -3.2881 25 19 15
-1.0876 -1.44725 -3.27088 26 20 15
-0.724613 -1.22879 -2.65524 27 17 14
-0.721558 -1.21825 -2.64633 26 17 14
-1.31518 -0.88955 -3.35912 24 16 12
-1.24294 -0.857992 -3.24171 25 17 14
-1.1958 -0.840469 -3.1664 24 15 12
-1.15968 -0.82469 -3.1077 23 16 12
-1.32195 -0.840307 -3.34775 24 16 12
-1.46963 0.192925 -3.11726 24 18 15
-1.66893 0.594089 -3.23193 24 15 13
-1.67078 0.623984 -3.22178 20 14 11
-1.62371 0.732063 -3.10776 23 15 10
-1.80732 1.47785 -3.05215 20 13 9
-1.82571 1.50513 -3.06691 16 10 7
-1.0102 -1.78608 -3.32283 21 20 17
-1.22448 -0.964648 -3.27891 22 16 13
-1.23497 -0.855615 -3.24725 24 15 13
-1.14925 -0.831987 -3.11386 23 15 12
-1.25833 -0.718432 -3.22205 24 17 13
-1.25121 -0.385231 -3.069 24 16 12
-1.46716 0.19443 -3.13111 24 18 16
-1.7051 0.680045 -3.26514 22 14 11
-1.61878 0.723894 -3.12222 22 15 9
-1.61825 0.83467 -3.07396 30 19 14
-1.81216 1.41782 -3.10288 25 15 11
-1.8018 1.4899 -3.05708 18 12 8
-1.81773 1.5075 -3.07245 19 11 7
-0.947837 -1.61409 -3.17746 25 19 17
-0.939271 -1.60267 -3.16025 26 20 18
-0.918735 -1.18685 -2.95249 26 17 13
-0.923647 -1.1675 -2.95126 25 16 12
-0.999664 -1.04871 -3.00966 22 15 12
-1.22022 -0.902481 -3.26417 23 16 13
-1.16883 -0.833971 -3.1609 23 15 12
-1.13271 -0.818192 -3.10219 21 14 11
-1.00992 -0.37612 -2.73614 29 19 12
-1.61333 0.826501 -3.08842 31 20 15
-1.78831 1.49315 -3.05433 17 10 7
-1.80179 1.50108 -3.07031 22 12 9
-1.80425 1.51075 -3.0697 20 11 8
-1.8067 1.52043 -3.06908 19 10 7
-1.13227 -1.44091 -3.38649 18 14 12
-0.910162 -1.16425 -2.94851 24 16 12
-0.907107 -1.1537 -2.93959 25 16 13
-0.909563 -1.14403 -2.93898 25 17 13
-1.01679 -1.06037 -3.05732 22 15 13
-1.20122 -0.89836 -3.25312 23 15 12
-1.33858 -0.628274 -3.33489 21 15 11
-1.20219 -0.375244 -3.0303 22 16 12
-1.15479 1.04106 -2.35507 35 19 14
-0.899132 -1.15132 -2.94514 23 15 12
-0.901588 -1.14165 -2.94453 24 17 13
-0.978141 -1.13364 -3.05118 23 16 12
-0.942022 -1.11786 -2.99247 24 15 12
-1.17121 -0.892495 -3.22547 22 15 12
-1.33306 -0.616223 -3.33982 22 15 12
-1.26574 -0.565317 -3.22118 23 16 13
-1.18625 -0.381669 -3.02816 23 16 13
-1.18871 -0.371995 -3.02754 23 16 13
-1.20072 1.07516 -2.42455 35 23 18
-1.12428 -1.42735 -3.40527 24 18 16
-0.97867 -1.23324 -3.11266 26 18 14
-0.885646 -1.14808 -2.94239 21 14 11
-0.942014 -1.10668 -3.0057 22 15 12
-0.946926 -1.08733 -3.00448 21 14 11
-1.01491 -1.0679 -3.09392 22 15 12
-1.14412 -1.07829 -3.28418 25 17 14
-1.26674 -0.866247 -3.36963 24 16 12
-1.36668 0.204728 -3.05432 26 17 16
-1.52602 0.38077 -3.20801 25 16 14
-1.18784 1.05819 -2.43132 34 22 16
-1.19029 1.06786 -2.43071 31 20 15
-1.1616 1.20322 -2.33144 29 19 14
-0.869705 -1.1545 -2.94025 21 14 11
-0.872161 -1.14483 -2.93963 21 15 12
-1.03078 -1.12968 -3.16124 21 15 12
-1.17969 -0.972112 -3.30786 22 15 12
-1.15645 -0.928182 -3.25561 20 14 12
-1.1534 -0.917636 -3.2467 20 14 12
-1.13579 -0.693466 -3.1253 23 16 12
-1.29321 -0.637876 -3.32785 22 15 12
-1.29507 -0.607981 -3.31771 21 14 11
-1.311 -0.590377 -3.33308 22 16 13
-1.34677 -0.223711 -3.22736 26 16 13
-1.49522 0.135187 -3.287 22 16 14
-0.858675 -1.14158 -2.93688 21 14 11
-1.0228 -1.1273 -3.16679 22 15 12
-1.15327 -1.08757 -3.33738 23 16 13
-1.1607 -0.967991 -3.29681 22 14 12
-1.16866 -0.959189 -3.30449 21 14 12
-1.13746 -0.924061 -3.24456 21 14 12
-1.13991 -0.914387 -3.24395 21 14 12
-1.13459 -0.641847 -3.11947 22 15 12
-1.28895 -0.575709 -3.31312 23 16 13
-1.32879 -0.531699 -3.35154 23 15 12
-1.19114 -0.328784 -3.06662 25 18 14
-1.19127 -0.147672 -2.98917 25 18 14
-1.00075 -1.11263 -3.14682 21 14 11
-1.13487 -1.10367 -3.33585 24 16 13
-1.13733 -1.09399 -3.33524 23 16 12
-1.13978 -1.08432 -3.33462 22 15 12
-1.1559 -0.795048 -3.23382 21 15 11
-1.21838 -0.774746 -3.31496 22 16 12
-1.2043 -0.762456 -3.28945 22 15 12
-1.11433 -0.687841 -3.12809 23 15 12
-1.27188 -0.451138 -3.2532 23 16 13
-1.20455 -0.400231 -3.13456 24 15 12
-1.35072 0.220661 -3.07864 25 17 16
-1.59464 0.504072 -3.30794 22 14 12
-0.978927 -1.66152 -3.36873 34 26 22
-1.12869 -1.16195 -3.36998 27 18 14
-0.990321 -1.11993 -3.15298 23 16 12
-1.11893 -1.11009 -3.33371 25 16 13
-1.12138 -1.10042 -3.3331 23 16 13
-1.12384 -1.09075 -3.33249 22 15 12
-1.1263 -1.08107 -3.33187 22 16 12
-1.13445 -0.800601 -3.22338 21 14 11
-1.1369 -0.790927 -3.22277 22 14 11
-1.21346 -0.782916 -3.32942 23 16 13
-1.19387 -0.769753 -3.29561 23 16 12
-1.18861 -0.406657 -3.13242 24 16 13
-1.21144 -0.158697 -3.05897 22 16 12
-1.22431 -0.130547 -3.06542 23 17 13
-1.22372 -0.110326 -3.0559 23 17 13
-1.58361 0.516995 -3.30458 27 19 16
-1.11527 -1.06815 -3.3285 23 17 13
-0.89118 -1.0025 -2.97811 23 16 13
-0.893636 -0.992823 -2.9775 22 15 12
-1.12096 -0.797352 -3.22063 21 14 11
-1.12342 -0.787678 -3.22001 21 15 11
-1.1859 -0.767376 -3.30116 24 16 14
-1.1357 -0.739307 -3.21694 24 15 13
-1.26736 -0.740017 -3.40659 23 15 12
-1.08922 -0.651448 -3.11244 24 17 14
-1.2815 -0.661751 -3.39337 23 16 13
-1.26695 -0.448128 -3.28089 24 17 14
-1.19603 -0.275899 -3.10508 24 17 14
-1.18441 -0.253934 -3.07895 23 17 14
-1.18627 -0.22404 -3.06881 23 17 13
-1.20837 -0.136972 -3.06328 22 15 11
-1.21083 -0.127298 -3.06267 23 17 13
-1.21329 -0.117623 -3.06205 23 16 12
-1.62045 0.673287 -3.30859 32 20 16
-0.920748 -1.6199 -3.30329 31 24 21
-0.991502 -1.13801 -3.1985 23 16 12
-0.986652 -1.06681 -3.161 23 16 13
-0.989108 -1.05713 -3.16039 24 16 13
-0.986053 -1.04658 -3.15147 24 16 13
-0.877694 -0.999248 -2.97536 24 16 13
-1.11167 -0.935646 -3.28457 20 14 12
-1.10993 -0.784429 -3.21726 20 14 11
-1.10137 -0.77301 -3.20005 22 15 12
-1.18649 -0.776418 -3.32392 22 16 12
-1.09526 -0.751918 -3.18222 23 16 13
-1.12042 -0.675396 -3.18561 23 16 13
-1.12533 -0.656048 -3.18438 23 15 13
-1.27352 -0.659374 -3.39892 23 16 13
-1.303 -0.543284 -3.39155 23 16 13
-1.28341 -0.530122 -3.35774 23 15 13
-1.31774 -0.485239 -3.38786 24 16 13
-1.16661 -0.290254 -3.08696 24 17 14
-1.21441 -0.237442 -3.13306 24 15 12
-1.25185 -0.112549 -3.13338 24 16 12
-1.61247 0.675663 -3.31414 31 20 15
-1.62044 0.684466 -3.32182 33 21 17
-0.989038 -1.13651 -3.21234 24 17 13
-0.991494 -1.12683 -3.21173 25 18 14
-0.984786 -1.08552 -3.18437 25 18 16
-0.975622 -1.05388 -3.15763 22 15 13
-0.978078 -1.04421 -3.15702 23 16 13
-1.21457 -0.880376 -3.42689 23 16 14
-1.08423 -0.738995 -3.17886 23 16 13
-1.10999 -0.682694 -3.19177 23 17 14
-1.10142 -0.671275 -3.17455 23 16 13
-1.11736 -0.653671 -3.18992 24 16 14
-1.24902 -0.654381 -3.37957 23 15 13
-1.28951 -0.540035 -3.38879 23 16 13
-1.30179 -0.491664 -3.38572 24 17 14
-1.29874 -0.481118 -3.37681 23 16 13
-1.31773 -0.47406 -3.40109 24 16 13
-1.21692 -0.126032 -3.10696 24 18 15
-0.975552 -1.13326 -3.20959 24 17 14
-0.978008 -1.12359 -3.20897 24 17 14
-0.980464 -1.11391 -3.20836 23 16 14
-0.932725 -1.07617 -3.12353 23 15 12
-0.979267 -1.07347 -3.18931 25 17 15
-0.976213 -1.06292 -3.18039 24 17 14
-0.964593 -1.04096 -3.15427 22 15 12
-1.20414 -0.887673 -3.43305 22 15 13
-1.20108 -0.877127 -3.42414 23 16 14
-1.19192 -0.845488 -3.3974 25 16 14
-1.16503 -0.770792 -3.32671 24 16 13
-1.08794 -0.668026 -3.1718 23 16 14
-1.11735 -0.642492 -3.20315 24 15 13
-1.09962 -0.599435 -3.1592 23 15 13
-1.09656 -0.588889 -3.15029 23 16 13
-1.20313 -0.575564 -3.29782 23 16 13
-1.2166 -0.567634 -3.31381 23 15 13
-1.20804 -0.556216 -3.2966 23 16 13
-1.25458 -0.553518 -3.36237 23 16 14
-1.27052 -0.535914 -3.37774 23 15 13
-1.2338 -0.499915 -3.30951 23 16 13
-1.28525 -0.477869 -3.37405 23 16 13
-1.14814 -0.385731 -3.13739 24 16 13
-1.13958 -0.374312 -3.12018 24 16 13
-1.20589 -0.113109 -3.10359 23 16 12
-1.44011 0.312717 -3.2579 21 15 13
-1.44197 0.342612 -3.24776 21 15 13
-1.52775 0.40954 -3.34243 22 16 13
-0.9541 -1.13881 -3.19915 25 17 14
-0.956556 -1.12914 -3.19854 25 16 14
-0.953501 -1.11859 -3.18962 24 16 14
-0.961468 -1.10979 -3.19731 24 16 14
-0.968836 -1.08077 -3.19547 23 16 14
-0.971293 -1.07109 -3.19485 23 16 14
-0.973749 -1.06142 -3.19424 24 17 14
-1.12194 -1.06475 -3.40878 26 18 14
-1.20791 -0.726149 -3.38727 23 16 13
-1.10692 -0.64979 -3.20931 25 15 14
-1.19821 -0.583733 -3.31228 23 17 14
-1.20312 -0.564385 -3.31105 23 15 13
-1.23559 -0.549397 -3.35132 23 16 13
-1.26254 -0.533537 -3.38329 23 16 13
-1.22888 -0.508084 -3.32397 23 16 13
-1.13711 -0.372807 -3.13402 25 17 13
-1.30124 -0.35853 -3.36393 23 16 13
-1.29819 -0.347983 -3.35502 24 17 13
-1.27003 -0.323402 -3.30399 24 16 13
-1.27249 -0.313728 -3.30338 24 16 13
-1.47065 0.218433 -3.36026 24 16 15
-1.46209 0.229851 -3.34305 25 17 15
-1.44196 0.353791 -3.26099 20 15 13
-1.43891 0.364337 -3.25208 20 15 12
-1.52529 0.411045 -3.35627 23 16 13
-1.51121 0.423335 -3.33076 23 16 12
-1.03712 1.15245 -2.33647 31 18 14
-1.43301 1.58288 -2.7213 26 15 12
-1.44649 1.59081 -2.73729 28 16 13
-0.622658 -1.32675 -2.8211 23 17 11
-0.62757 -1.30741 -2.81987 29 20 16
-0.951635 -1.13731 -3.213 25 17 14
-0.954092 -1.12763 -3.21238 25 16 14
-0.945526 -1.11622 -3.19517 24 16 14
-0.950438 -1.09687 -3.19394 24 16 14
-0.954752 -1.0573 -3.18318 24 17 14
-1.106 -1.07117 -3.40664 25 16 13
-1.11397 -1.06237 -3.41432 26 17 14
-1.11642 -1.05269 -3.41371 26 16 14
-1.07545 -0.965708 -3.31751 24 16 13
-1.20239 -0.714098 -3.39221 22 16 13
-1.10445 -0.648285 -3.22316 25 16 15
-1.09038 -0.635994 -3.19765 24 15 14
-1.25696 -0.612042 -3.42694 23 16 14
-1.25391 -0.601496 -3.41803 23 16 14
-1.25636 -0.591822 -3.41741 23 16 14
-1.12656 -0.561217 -3.21763 24 16 12
-1.26864 -0.543451 -3.41434 24 16 14
-1.2711 -0.533777 -3.41373 23 16 13
-1.29021 -0.345607 -3.36056 24 16 13
-1.29267 -0.335932 -3.35995 24 16 13
-1.50569 0.435386 -3.33569 23 16 13
-1.55422 0.649091 -3.31388 30 21 15
-0.62265 -1.31558 -2.83433 30 22 17
-1.06232 -1.3449 -3.47918 32 21 18
-0.93204 -1.11297 -3.19242 25 16 14
-1.10905 -1.07054 -3.42878 26 16 14
-1.09497 -1.05825 -3.40327 25 15 13
-1.09743 -1.04857 -3.40266 25 15 13
-1.07239 -0.943982 -3.32182 23 16 14
-1.09342 -0.635362 -3.21979 25 16 14
-1.20855 -0.633455 -3.38454 24 16 14
-1.20244 -0.612363 -3.36671 24 17 14
-1.24899 -0.609665 -3.43249 23 16 13
-1.2294 -0.596503 -3.39868 23 16 14
-1.23185 -0.586829 -3.39806 24 17 14
-1.25516 -0.540202 -3.41159 23 16 13
-1.2521 -0.529656 -3.40268 23 16 13
-1.11924 -0.488505 -3.19398 25 17 15
-1.13823 -0.481447 -3.21826 26 16 15
-1.26385 -0.370508 -3.35135 23 16 13
-1.43571 0.216129 -3.34707 23 16 14
-1.50263 0.457112 -3.34001 25 17 15
-1.55786 0.629503 -3.34555 30 20 15
-1.56032 0.639177 -3.34494 32 21 16
-1.56277 0.648851 -3.34432 31 20 15
-0.536563 0.851504 -1.78169 35 19 13
-0.9155 -1.09917 -3.18075 25 17 14
-0.967554 -1.09735 -3.25482 27 18 15
-1.08514 -1.08577 -3.41896 26 16 13
-1.09862 -1.07784 -3.43494 26 16 13
-1.10107 -1.06816 -3.43433 26 17 14
-1.07597 -1.05413 -3.39222 27 17 14
-1.07843 -1.04445 -3.3916 25 16 14
-1.11001 -0.536243 -3.21919 25 17 14
-1.19513 -0.53965 -3.34306 22 16 13
-1.24167 -0.536953 -3.40884 23 16 13
-1.24413 -0.527279 -3.40822 23 16 13
-1.13026 -0.47907 -3.2238 25 16 14
-1.204 -0.0982881 -3.16665 26 19 15
-1.28074 0.181391 -3.15713 18 15 13
-1.25505 0.215646 -3.1055 19 15 14
-1.39659 0.344189 -3.25396 22 16 14
-1.44931 0.41635 -3.29884 22 16 13
-1.54683 0.642426 -3.34218 29 20 14
-1.53521 0.664391 -3.31606 29 21 15
-0.963232 -1.12574 -3.27881 26 18 16
-0.965688 -1.11606 -3.2782 28 19 16
-0.96509 -1.09584 -3.26867 27 18 15
-1.09064 -1.07546 -3.44049 26 17 14
-1.0931 -1.06578 -3.43987 26 16 14
-1.09555 -1.05611 -3.43926 25 17 14
-1.07046 -1.04208 -3.39715 26 17 14
-1.08393 -1.03415 -3.41313 24 15 13
-1.18554 -0.204944 -3.20385 24 16 13
-1.19357 -0.105585 -3.17281 26 19 15
-1.19052 -0.0950391 -3.1639 26 18 14
-1.34123 0.00186478 -3.3391 26 18 15
-1.47619 0.352833 -3.38276 22 16 14
-1.43337 0.409925 -3.2967 23 16 13
-1.44684 0.417855 -3.31268 23 16 13
-1.4493 0.427529 -3.31207 24 17 14
-1.52724 0.666767 -3.3216 29 21 16
-0.798261 1.20477 -2.04268 35 22 21
-0.974844 -1.13652 -3.31817 28 19 17
-0.943038 -1.08117 -3.2487 25 16 14
-1.05146 -1.03795 -3.3861 25 16 13
-1.18948 -0.697533 -3.43867 24 17 14
-1.16349 -0.190276 -3.18388 24 17 13
-1.4572 0.356954 -3.3717 22 16 14
-1.42539 0.412302 -3.30224 23 16 14
-1.43887 0.420232 -3.31823 23 16 13
-0.776808 1.19922 -2.03224 35 22 18
-0.917148 -1.30741 -3.32647 29 22 20
-0.955848 -1.1324 -3.30711 26 17 14
-1.00055 -0.233816 -2.98626 26 16 13
-1.38555 0.37947 -3.27705 20 15 13
-1.39352 0.388272 -3.28473 21 16 14
-1.40699 0.396202 -3.30072 21 16 14
-1.42293 0.413807 -3.31609 23 16 14
-0.558039 1.00351 -1.81955 27 15 11
-0.800814 -1.25769 -3.1559 26 19 17
-0.770866 -1.17245 -3.07629 25 18 15
-1.09219 -0.539026 -3.26688 26 19 16
-1.14377 -0.335868 -3.25398 28 19 15
-1.00055 -0.222637 -2.99949 28 18 14
-1.37817 0.361627 -3.29212 20 16 14
-1.37512 0.372173 -3.28321 19 16 13
-1.37757 0.381847 -3.2826 19 15 13
-1.38554 0.390649 -3.29028 20 15 13
-1.41555 0.395963 -3.33116 21 15 13
-1.42352 0.404765 -3.33884 21 15 13
-1.41495 0.416183 -3.32163 23 16 14
-1.4364 0.432915 -3.3453 23 16 13
-1.43885 0.44259 -3.34469 24 16 14
-0.783077 -1.20346 -3.12518 30 22 19
-1.0361 -1.04224 -3.41995 25 17 14
-1.14477 -0.636798 -3.40244 28 19 16
-1.2335 0.164253 -3.1867 23 17 16
-1.37511 0.383352 -3.29644 19 15 13
-1.41249 0.417688 -3.33548 23 16 13
-1.46646 0.539964 -3.36069 33 22 17
-1.17565 0.636301 -2.90118 36 26 21
-0.884596 -1.37941 -3.36462 25 19 17
-0.822243 -1.2186 -3.20603 31 24 22
-1.0171 -1.03812 -3.40889 28 19 15
-1.22553 0.16663 -3.19225 23 18 16
-1.37192 0.223965 -3.37821 23 15 13
-1.45909 0.522121 -3.37576 27 17 12
-1.47256 0.530051 -3.39174 29 18 13
-0.817323 -1.22677 -3.22048 30 22 21
-0.713877 -1.16009 -3.04314 30 21 19
-0.740234 -1.12401 -3.06558 28 20 17
-0.99014 -1.0428 -3.39016 30 19 15
-1.33016 0.0706827 -3.40188 25 17 15
-1.38911 0.302863 -3.38714 23 16 13
-0.517625 -1.56062 -2.95062 29 24 20
-0.809348 -1.2244 -3.22603 27 20 18
-0.951454 -0.280849 -3.02597 29 19 14
-1.16896 -0.124075 -3.27156 29 20 15
-1.33944 0.231335 -3.3644 24 16 14
-1.39156 0.323716 -3.39975 21 14 12
-1.35484 0.359716 -3.33152 19 14 13
-0.589207 1.02428 -1.94564 35 18 14
-0.622673 -1.94846 -3.28595 47 48 47
-0.795863 -1.22115 -3.22328 26 19 16
-0.80383 -1.21235 -3.23096 26 19 17
-0.937969 -0.2776 -3.02322 32 21 16
-1.26827 0.0525186 -3.35672 31 19 16
-1.2842 0.0701228 -3.37209 27 18 15
-1.36585 0.36915 -3.36134 17 14 12
-0.773811 -1.20648 -3.20331 25 19 17
-1.26029 0.0548955 -3.36227 31 19 16
-1.30876 0.178044 -3.37918 21 16 15
-1.37806 0.338144 -3.41023 22 15 13
-1.34991 0.362725 -3.35921 19 15 13
-1.34135 0.374144 -3.34199 18 14 13
-1.44126 0.519337 -3.42345 28 17 13
-1.43821 0.529884 -3.41454 28 17 13
-1.44066 0.539558 -3.41392 28 17 13
-0.664124 -1.28864 -3.09882 22 22 22
-0.626807 -1.23242 -3.02106 22 22 23
-0.793989 -1.22868 -3.25988 28 24 21
-0.682576 -1.1708 -3.07485 42 36 36
-0.939252 -1.04035 -3.38806 33 20 16
-0.936198 -1.02981 -3.37914 30 18 15
-0.958799 -0.218289 -3.06382 30 20 17
-1.31665 0.107469 -3.43882 27 18 15
-1.29527 0.181293 -3.37642 22 17 15
-1.30875 0.189223 -3.39241 22 16 15
-1.30569 0.199769 -3.38349 20 17 16
-1.3596 0.231489 -3.44743 21 15 14
-1.36644 0.371288 -3.39733 20 15 14
-1.41124 0.525203 -3.3958 27 17 13
-1.42718 0.542807 -3.41117 28 18 14
-1.15945 -0.500501 -3.49136 28 19 16
-1.31113 0.11952 -3.44375 25 17 15
-1.3191 0.128322 -3.45143 24 16 15
-1.30077 0.191599 -3.39795 22 17 15
-1.30874 0.200402 -3.40564 22 17 15
-1.31856 0.239098 -3.40318 23 17 16
-1.33947 0.366607 -3.3786 21 16 14
-1.35295 0.374537 -3.39458 20 16 14
-1.36092 0.383339 -3.40226 20 15 14
-1.40878 0.526708 -3.40965 26 16 12
-1.41124 0.536382 -3.40903 25 16 12
-0.976513 -0.238989 -3.13423 30 20 15
-1.33946 0.377786 -3.39183 21 17 15
-0.47409 -1.50679 -2.97313 18 18 15
-0.645111 -1.26216 -3.11422 26 25 26
-1.0588 -0.784228 -3.50429 29 21 18
-1.00976 0.0386259 -3.08108 25 19 16
-1.2983 0.204283 -3.42503 22 17 14
-1.30567 0.233306 -3.42318 21 16 15
-1.32047 0.381907 -3.38077 21 16 15
-0.620604 -1.25716 -3.09487 19 18 21
-1.2173 -0.01323 -3.41981 29 19 15
-1.31249 0.384284 -3.38632 23 17 15
-0.489296 1.04789 -1.91806 35 20 15
-0.491752 1.05756 -1.91745 34 19 15
-0.523682 1.18333 -1.90946 28 18 15
-0.449574 -1.49062 -2.96701 22 22 19
-0.760348 -1.05678 -3.22798 39 25 22
-1.03362 -0.838392 -3.52736 29 20 17
-0.47581 1.05114 -1.91531 37 21 16
-1.62561 1.58364 -3.34058 30 15 10
-1.01828 -0.865037 -3.53475 30 21 20
-1.02013 -0.835143 -3.52461 32 21 19
-1.16624 -0.304807 -3.50742 29 19 18
-0.497846 1.05883 -1.96174 31 18 14
-0.505813 1.06763 -1.96942 37 23 17
-0.508269 1.07731 -1.96881 37 22 17
-1.18156 1.49403 -2.75844 31 18 16
-1.12202 -0.467763 -3.53171 26 21 17
-1.2915 0.199756 -3.48932 26 18 15
-1.20364 0.66649 -3.16291 46 29 24
-0.688786 -1.75658 -3.47911 22 25 21
-0.417208 -1.29096 -2.88899 33 38 34
-0.98082 -0.967572 -3.5609 34 22 21
-1.32414 0.497591 -3.42664 30 18 15
-1.36949 0.540729 -3.47336 41 26 20
-1.19566 0.668867 -3.16846 45 29 24
-1.36842 0.762283 -3.37686 33 20 16
-1.38189 0.770213 -3.39284 30 19 15
-0.214209 -0.814949 -2.41107 40 31 24
-1.00723 -0.829756 -3.55785 35 20 21
-1.00969 -0.820082 -3.55723 35 21 22
-1.01765 -0.81128 -3.56492 32 22 21
-1.03485 -0.743561 -3.56061 30 22 21
-1.0373 -0.733887 -3.56 31 22 22
-1.30934 0.360169 -3.48228 25 16 14
-1.31862 0.509642 -3.43157 34 22 17
-1.32659 0.518444 -3.43925 35 24 18
-1.39291 0.779647 -3.42267 31 20 15
-0.539453 1.07572 -2.06843 45 29 25
-0.5113 1.1003 -2.01741 39 23 19
-0.736883 -1.22862 -3.35806 25 27 26
-1.01094 -0.758788 -3.55079 37 30 27
-1.02442 -0.750858 -3.56677 30 24 22
-1.02136 -0.740312 -3.55786 31 24 22
-1.01831 -0.729766 -3.54895 31 25 22
-1.02076 -0.720091 -3.54833 33 27 23
-1.02873 -0.711289 -3.55602 30 23 22
-1.02568 -0.700743 -3.54711 30 25 23
-1.02813 -0.691069 -3.54649 30 23 23
-1.0361 -0.682267 -3.55418 30 21 23
-1.03304 -0.67172 -3.54526 32 22 24
-1.04101 -0.662918 -3.55295 31 21 23
-1.03796 -0.652372 -3.54403 33 22 25
-1.04041 -0.642698 -3.54342 33 21 24
-1.04287 -0.633024 -3.5428 32 19 23
-1.05084 -0.624222 -3.55049 30 19 21
-1.04778 -0.613675 -3.54158 30 20 22
-1.05024 -0.604001 -3.54096 30 20 22
-1.06371 -0.596071 -3.55695 30 19 22
-1.06617 -0.586397 -3.55633 29 20 21
-1.06863 -0.576723 -3.55572 27 18 20
-1.07108 -0.567049 -3.5551 25 20 20
-1.07354 -0.557374 -3.55449 25 19 18
-1.07048 -0.546828 -3.54557 26 20 19
-1.07845 -0.538026 -3.55326 26 18 18
-1.08091 -0.528352 -3.55264 26 18 18
-1.08336 -0.518678 -3.55203 27 21 21
-1.28735 0.465392 -3.42359 33 21 17
-0.526565 1.05874 -2.0752 44 33 29
-0.522912 1.08951 -2.05676 42 27 23
-1.2624 1.58632 -2.90726 29 15 11
-0.620775 -1.74247 -3.42936 24 25 22
-0.574893 -1.67483 -3.33438 14 14 13
-0.934191 -1.02729 -3.57354 141 70 88
-0.936647 -1.01761 -3.57292 145 66 85
-0.944614 -1.00881 -3.58061 135 63 81
-0.947071 -0.999138 -3.57999 137 62 81
-0.944016 -0.988592 -3.57108 146 66 85
-0.946472 -0.978918 -3.57047 143 65 84
-0.98577 -0.824131 -3.56064 109 65 73
-0.993737 -0.815328 -3.56832 78 49 53
-1.02075 -0.708912 -3.56156 43 39 33
-1.0177 -0.698366 -3.55265 48 45 37
-1.02016 -0.688692 -3.55204 53 45 41
-1.02812 -0.67989 -3.55972 42 31 32
-1.02507 -0.669344 -3.55081 43 30 32
-1.02752 -0.659669 -3.55019 46 31 33
-1.03549 -0.650867 -3.55788 43 27 32
-1.03244 -0.640321 -3.54896 42 25 30
-1.03489 -0.630647 -3.54835 48 29 34
-1.04286 -0.621845 -3.55603 41 23 28
-1.03981 -0.611298 -3.54712 42 25 30
-1.04226 -0.601624 -3.54651 41 25 30
-1.05023 -0.592822 -3.55419 36 22 28
-1.04717 -0.582276 -3.54528 37 22 28
-1.04963 -0.572602 -3.54466 37 24 28
-1.0576 -0.5638 -3.55235 30 23 24
-1.05454 -0.553253 -3.54344 32 22 22
-1.06802 -0.545323 -3.55942 29 20 20
-1.06497 -0.534777 -3.55051 31 19 20
-1.06191 -0.524231 -3.54159 34 18 21
-1.06437 -0.514557 -3.54098 36 20 23
-1.06682 -0.504882 -3.54036 35 20 23
-1.06377 -0.494336 -3.53145 38 20 23
-1.07174 -0.485534 -3.53914 35 21 23
-1.07665 -0.466186 -3.53791 28 18 20
-1.08707 -0.447709 -3.54498 28 21 22
-1.08953 -0.438035 -3.54436 28 21 22
-1.09749 -0.429233 -3.55205 25 21 20
-1.09995 -0.419559 -3.55143 25 20 19
-1.10241 -0.409885 -3.55082 26 21 20
-1.10486 -0.40021 -3.5502 26 21 20
-1.10732 -0.390536 -3.54959 26 21 20
-1.10977 -0.380862 -3.54897 27 20 20
-1.11654 -0.331619 -3.5376 29 19 19
-1.119 -0.321945 -3.53699 30 19 18
-1.11595 -0.311399 -3.52808 32 20 19
-1.39044 0.792331 -3.44974 34 22 17
-1.23052 1.56229 -2.88975 32 17 13
-1.29366 1.65293 -2.9417 26 13 9
-1.29 1.6837 -2.92326 26 13 9
-0.651975 -1.76642 -3.50252 17 20 17
-0.564462 -1.68213 -3.34054 15 16 15
-0.566918 -1.67245 -3.33993 13 15 14
-0.563864 -1.66191 -3.33102 15 18 16
0.1989 -1.27956 -2.07022 51 39 41
-0.825102 -1.12966 -3.47857 36 28 25
-0.928673 -1.01524 -3.57847 167 71 94
-0.933585 -0.995889 -3.57724 170 71 95
-0.944008 -0.977413 -3.58431 162 66 90
-0.940953 -0.966866 -3.5754 168 69 93
-0.951376 -0.94839 -3.58247 165 64 89
-0.967372 -0.84023 -3.55911 155 87 100
-0.969829 -0.830556 -3.5585 152 86 98
-0.972285 -0.820882 -3.55788 151 91 102
-1.00481 -0.715338 -3.55943 104 105 88
-1.00727 -0.705663 -3.55881 106 103 89
-1.00973 -0.695989 -3.5582 97 94 81
-1.01218 -0.686315 -3.55758 96 88 79
-1.01464 -0.676641 -3.55697 100 86 80
-1.01709 -0.666967 -3.55635 87 69 67
-1.01955 -0.657292 -3.55574 91 68 70
-1.02201 -0.647618 -3.55512 96 69 74
-1.02446 -0.637944 -3.55451 80 52 58
-1.02692 -0.62827 -3.5539 80 52 58
-1.02937 -0.618596 -3.55328 77 49 55
-1.03183 -0.608922 -3.55267 72 45 52
-1.03429 -0.599247 -3.55205 82 53 62
-1.03674 -0.589573 -3.55144 69 41 50
-1.0392 -0.579899 -3.55082 60 35 43
-1.04166 -0.570225 -3.55021 60 38 44
-1.04962 -0.561423 -3.55789 52 35 38
-1.04657 -0.550876 -3.54898 50 32 35
-1.05699 -0.5324 -3.55605 40 26 29
-1.05088 -0.511308 -3.53822 52 35 40
-1.11408 -0.330114 -3.55145 27 22 23
-1.11348 -0.309894 -3.54192 32 20 21
-1.13193 -0.192059 -3.51795 32 19 19
-1.1387 -0.142816 -3.50658 32 17 16
-1.28847 0.356753 -3.50783 24 18 17
-1.29092 0.366427 -3.50721 24 17 16
-1.36036 0.70764 -3.46082 43 25 19
-1.38671 0.743721 -3.48325 40 25 20
-1.38 0.785034 -3.4559 35 22 17
-1.38246 0.794708 -3.45529 34 22 17
-1.21398 1.57609 -2.87809 32 18 13
-1.30467 1.66236 -2.97153 26 14 9
-1.29611 1.67378 -2.95432 26 14 9
-0.911534 -0.981222 -3.55728 160 56 82
-0.930522 -0.974164 -3.58156 165 51 78
-0.927468 -0.963617 -3.57265 164 49 76
-0.913391 -0.951327 -3.54713 154 52 79
-0.915847 -0.941653 -3.54652 155 48 76
-0.940347 -0.935467 -3.5791 173 55 84
-0.942803 -0.925793 -3.57849 181 63 91
-0.964908 -0.838725 -3.57296 184 105 120
-0.999294 -0.703287 -3.56436 160 157 137
-1.00175 -0.693612 -3.56374 156 148 131
-1.00421 -0.683938 -3.56313 153 140 127
-1.00666 -0.674264 -3.56251 155 131 124
-1.00912 -0.66459 -3.5619 149 120 117
-1.00606 -0.654043 -3.55299 157 122 120
-1.00852 -0.644369 -3.55237 149 111 113
-1.01894 -0.625893 -3.55944 139 95 103
-1.01835 -0.605673 -3.54991 142 94 102
-1.0208 -0.595998 -3.5493 138 89 99
-1.02326 -0.586324 -3.54869 134 86 98
-1.03122 -0.577522 -3.55637 122 79 91
-1.03368 -0.567848 -3.55576 116 79 89
-1.03614 -0.558174 -3.55514 116 79 87
-1.03859 -0.5485 -3.55453 101 76 83
-1.04105 -0.538825 -3.55391 96 74 81
-1.04596 -0.519477 -3.55268 83 72 78
-1.04842 -0.509803 -3.55207 73 65 70
-1.18716 -0.00848923 -3.53672 26 20 21
-1.18961 0.00118496 -3.53611 24 19 20
-1.38 0.796213 -3.46913 35 23 18
-1.37694 0.806759 -3.46022 34 22 17
-0.465923 1.10187 -2.02361 44 26 21
-1.19313 1.55031 -2.87718 32 17 13
-1.27405 1.68845 -2.93435 26 14 9
-0.536294 -1.63519 -3.31598 16 19 18
-0.937284 -0.913742 -3.58342 166 44 74
-0.950762 -0.905812 -3.5994 161 48 75
-0.947708 -0.895266 -3.59049 167 53 80
-0.944653 -0.884719 -3.58157 168 52 80
-0.933033 -0.862755 -3.55545 165 59 82
-0.952021 -0.855697 -3.57973 177 74 97
-0.937945 -0.843406 -3.55422 165 66 85
-0.937346 -0.823186 -3.54469 162 77 92
-1.00114 -0.662213 -3.56744 183 141 139
-1.0036 -0.652539 -3.56683 182 136 137
-1.00606 -0.642865 -3.56622 180 128 132
-1.00851 -0.63319 -3.5656 174 116 123
-1.01342 -0.613842 -3.56437 170 103 116
-1.01037 -0.603296 -3.55546 179 105 120
-1.01283 -0.593621 -3.55484 174 103 117
-1.01528 -0.583947 -3.55423 172 101 117
-1.02325 -0.575145 -3.56192 156 95 111
-1.02019 -0.564599 -3.553 158 98 115
-1.02816 -0.555797 -3.56069 149 106 120
-1.02511 -0.545251 -3.55177 151 115 128
-1.03307 -0.536448 -3.55946 138 119 127
-1.03002 -0.525902 -3.55054 134 125 132
-1.03248 -0.516228 -3.54993 127 125 131
-1.03493 -0.506554 -3.54932 125 129 134
-0.273489 0.0164627 -2.23013 23 16 14
-1.16756 0.0158523 -3.51614 25 20 19
-1.17002 0.0255265 -3.51553 22 18 20
-1.17248 0.0352007 -3.51491 22 19 21
-1.18841 0.0528049 -3.53028 23 17 21
-1.18536 0.0633512 -3.52137 23 18 22
-1.19332 0.0721532 -3.52905 21 19 22
-1.19578 0.0818274 -3.52844 20 20 22
-1.21111 0.119652 -3.53428 23 18 21
-1.21603 0.139 -3.53305 23 18 20
-1.35974 0.750219 -3.47775 38 25 19
-1.37202 0.798589 -3.47468 35 23 17
-1.1882 1.54214 -2.89163 33 17 13
-1.32909 1.60035 -3.06929 25 14 13
-0.51544 -1.66096 -3.31507 16 18 18
-0.517896 -1.65129 -3.31446 13 17 16
-0.514841 -1.64074 -3.30554 14 17 16
-0.517297 -1.63107 -3.30493 13 16 16
0.17622 -1.17918 -2.11391 53 36 33
-0.90966 -0.988758 -3.59388 164 43 72
-0.909062 -0.968538 -3.58435 163 41 72
-0.934222 -0.892017 -3.58773 156 39 66
-0.936678 -0.882342 -3.58712 155 39 66
-0.939134 -0.872668 -3.58651 157 42 69
-0.94159 -0.862994 -3.58589 156 40 69
-0.944046 -0.85332 -3.58528 155 46 71
-0.946503 -0.843646 -3.58466 149 43 67
-0.948959 -0.833971 -3.58405 145 42 65
-0.945904 -0.823425 -3.57513 142 41 63
-0.953871 -0.814623 -3.58282 146 49 69
-0.950816 -0.804077 -3.57391 146 53 70
-0.963159 -0.66515 -3.53211 140 72 79
-0.99868 -0.660708 -3.58129 178 121 124
-1.00114 -0.651034 -3.58067 176 112 118
-0.970527 -0.636127 -3.53027 157 85 93
-0.995027 -0.629941 -3.56285 192 113 124
-1.00299 -0.621139 -3.57053 195 113 127
-0.999939 -0.610593 -3.56162 199 113 127
-1.0024 -0.600919 -3.561 192 103 119
-1.01036 -0.592117 -3.56869 195 108 128
-1.00731 -0.58157 -3.55978 198 107 128
-1.00976 -0.571896 -3.55916 192 111 132
-1.01773 -0.563094 -3.56685 179 119 139
-1.02019 -0.55342 -3.56623 174 129 147
-1.01713 -0.542874 -3.55732 174 143 160
-1.0251 -0.534072 -3.565 161 158 169
-1.02204 -0.523525 -3.55609 151 157 167
-1.0245 -0.513851 -3.55548 144 164 171
-1.05152 -0.407435 -3.54872 118 155 161
-1.07362 -0.320367 -3.54319 114 149 156
-1.18289 0.0648559 -3.53521 24 19 25
-1.18535 0.0745301 -3.5346 23 21 26
-1.1878 0.0842043 -3.53398 26 24 29
-1.19026 0.0938785 -3.53337 26 22 27
-1.19272 0.103553 -3.53275 24 21 25
-1.19517 0.113227 -3.53214 25 21 25
-1.18661 0.124645 -3.51493 27 24 27
-1.20008 0.132575 -3.53091 26 19 23
-1.20805 0.141377 -3.5386 28 19 24
-1.19949 0.152796 -3.52138 24 18 22
-1.19092 0.164214 -3.50417 26 17 21
-1.2044 0.172144 -3.52016 24 18 22
-1.20685 0.181818 -3.51954 26 18 22
-1.2038 0.192365 -3.51063 26 18 22
-1.35177 0.752595 -3.48329 40 25 20
-0.501954 -1.65771 -3.31232 16 18 18
-0.498899 -1.64717 -3.30341 17 18 18
-0.512377 -1.63924 -3.31939 17 20 20
-0.476257 -1.62346 -3.26068 15 18 16
-0.902284 -1.0066 -3.60895 175 60 89
-0.893719 -0.995184 -3.59174 179 58 90
-0.896175 -0.985509 -3.59112 180 58 90
-0.898631 -0.975835 -3.59051 177 56 87
-0.901087 -0.966161 -3.5899 180 58 89
-0.903543 -0.956487 -3.58928 173 51 82
-0.905999 -0.946813 -3.58867 176 51 82
-0.908455 -0.937139 -3.58805 180 54 85
-0.905401 -0.926592 -3.57914 174 50 82
-0.913368 -0.91779 -3.58682 170 48 77
-0.910313 -0.907244 -3.57791 166 48 76
-0.912769 -0.89757 -3.5773 168 51 78
-0.931758 -0.890512 -3.60158 164 51 77
-0.923192 -0.879093 -3.58437 163 46 73
-0.920138 -0.868547 -3.57545 164 49 77
-0.928105 -0.859745 -3.58314 163 47 76
-0.930561 -0.850071 -3.58252 163 45 74
-0.927506 -0.839525 -3.57361 163 46 75
-0.94344 -0.82192 -3.58898 157 44 73
-0.945896 -0.812246 -3.58836 156 45 72
-0.942841 -0.8017 -3.57945 148 43 67
-0.950808 -0.792898 -3.58714 144 41 63
-0.947754 -0.782352 -3.57822 142 39 61
-0.95021 -0.772677 -3.57761 139 41 60
-0.952666 -0.763003 -3.57699 127 37 51
-0.955122 -0.753329 -3.57638 124 37 49
-0.957578 -0.743655 -3.57577 123 40 49
-0.960034 -0.733981 -3.57515 127 46 56
-0.962491 -0.724306 -3.57454 116 40 46
-0.964947 -0.714632 -3.57392 121 42 48
-0.967403 -0.704958 -3.57331 124 45 50
-0.969859 -0.695284 -3.57269 128 51 54
-0.972315 -0.68561 -3.57208 127 50 56
-0.974771 -0.675935 -3.57147 131 50 57
-0.977228 -0.666261 -3.57085 131 46 56
-0.979684 -0.656587 -3.57024 141 54 66
-0.98214 -0.646913 -3.56962 150 61 75
-0.984596 -0.637239 -3.56901 149 57 72
-0.987052 -0.627565 -3.56839 153 58 74
-0.989508 -0.61789 -3.56778 162 59 78
-0.997475 -0.609088 -3.57546 168 67 86
-1.00544 -0.600286 -3.58315 161 63 86
-1.00239 -0.58974 -3.57423 165 62 85
-1.01035 -0.580938 -3.58192 159 66 89
-1.0073 -0.570391 -3.57301 173 86 110
-1.00976 -0.560717 -3.57239 158 87 112
-1.02323 -0.552787 -3.58837 110 80 99
-1.02018 -0.542241 -3.57946 123 109 126
-1.01712 -0.531695 -3.57055 140 149 162
-1.01958 -0.522021 -3.56993 130 157 167
-1.02204 -0.512346 -3.56932 119 163 171
-1.02449 -0.502672 -3.56871 111 166 174
-1.03923 -0.444627 -3.56502 125 174 187
-1.03863 -0.424407 -3.55549 120 175 188
-1.04109 -0.414732 -3.55488 120 176 188
-1.046 -0.395384 -3.55365 126 182 195
-1.05091 -0.376036 -3.55242 122 179 191
-1.05337 -0.366361 -3.55181 114 173 184
-1.05582 -0.356687 -3.55119 122 179 192
-1.05828 -0.347013 -3.55058 117 173 190
-1.06074 -0.337339 -3.54996 114 168 184
-1.06319 -0.327665 -3.54935 115 170 186
-1.06014 -0.317118 -3.54044 108 164 179
-1.0681 -0.308316 -3.54812 112 164 175
-1.07547 -0.279294 -3.54628 121 164 178
-1.07793 -0.26962 -3.54566 118 157 170
-1.16941 0.0681049 -3.53246 55 39 51
-1.17737 0.076907 -3.54014 55 43 52
-1.1633 0.0891975 -3.51463 51 38 48
-1.17126 0.0979996 -3.52232 43 32 41
-1.17372 0.107674 -3.5217 44 32 41
-1.17066 0.11822 -3.51279 53 39 47
-1.18965 0.125278 -3.53707 40 29 37
-1.19211 0.134952 -3.53646 41 29 36
-1.19457 0.144626 -3.53584 48 34 42
-1.18049 0.156917 -3.51033 48 32 39
-1.18295 0.166591 -3.50972 47 30 38
-1.19642 0.174521 -3.5257 35 22 29
-1.20439 0.183323 -3.53339 33 19 26
-1.20134 0.193869 -3.52447 38 25 33
-1.21481 0.201799 -3.54046 41 27 33
-1.21727 0.211474 -3.53984 42 29 35
-1.21973 0.221148 -3.53923 31 20 26
-1.21116 0.232566 -3.52201 27 18 24
-1.21362 0.24224 -3.5214 28 19 27
-1.22158 0.251042 -3.52908 30 20 28
-1.22955 0.259844 -3.53677 27 18 24
-1.21547 0.272135 -3.51126 23 18 23
-1.21242 0.282681 -3.50235 22 20 22
-1.2259 0.290611 -3.51833 22 19 20
-1.22835 0.300285 -3.51771 21 18 20
-1.23632 0.309087 -3.5254 24 21 22
-1.23878 0.318762 -3.52478 23 20 21
-1.24674 0.327564 -3.53247 22 18 20
-1.26394 0.395283 -3.52817 22 21 21
-1.26639 0.404957 -3.52755 21 21 20
-1.26885 0.414631 -3.52694 22 20 20
-1.2713 0.424306 -3.52632 21 20 20
-1.27867 0.453328 -3.52448 22 18 19
-1.28113 0.463002 -3.52387 23 18 20
-1.27768 1.69122 -2.99248 26 13 9
-1.28565 1.70002 -3.00017 26 13 9
-0.505599 -1.6773 -3.34399 16 18 18
-0.497034 -1.66588 -3.32678 15 17 18
-0.49949 -1.65621 -3.32616 17 19 19
-0.507457 -1.64741 -3.33385 14 17 17
-0.495238 -1.60522 -3.29819 17 21 21
0.157247 -1.14976 -2.16465 43 27 22
-0.883288 -1.00248 -3.5979 184 63 99
-0.880233 -0.991935 -3.58899 182 65 99
-0.882689 -0.98226 -3.58837 181 64 98
-0.890656 -0.973458 -3.59606 185 67 101
-0.887601 -0.962912 -3.58714 185 65 99
-0.890057 -0.953238 -3.58653 185 65 99
-0.892514 -0.943564 -3.58591 184 67 100
-0.900481 -0.934762 -3.5936 186 67 97
-0.897426 -0.924215 -3.58469 184 69 98
-0.899882 -0.914541 -3.58407 183 68 97
-0.907849 -0.905739 -3.59176 181 68 95
-0.904794 -0.895193 -3.58284 180 69 95
-0.90725 -0.885519 -3.58223 178 70 96
-0.915217 -0.876717 -3.58991 179 69 94
-0.917674 -0.867042 -3.5893 178 67 94
-0.92013 -0.857368 -3.58868 174 59 87
-0.922586 -0.847694 -3.58807 177 59 89
-0.952658 -0.751824 -3.59022 159 55 79
-0.949603 -0.741278 -3.58131 159 51 76
-0.960027 -0.722802 -3.58838 156 58 78
-0.956373 -0.692035 -3.56994 154 52 72
-0.95883 -0.682361 -3.56933 152 50 69
-0.969253 -0.663884 -3.5764 141 40 58
-0.97722 -0.655082 -3.58408 146 48 66
-0.974165 -0.644536 -3.57517 146 42 64
-0.976621 -0.634862 -3.57455 148 40 63
-0.979077 -0.625188 -3.57394 148 36 61
-0.981533 -0.615513 -3.57332 146 36 58
-0.98399 -0.605839 -3.57271 150 37 61
-0.986446 -0.596165 -3.5721 151 39 62
-0.988902 -0.586491 -3.57148 149 36 60
-0.993814 -0.567143 -3.57025 143 40 67
-0.99627 -0.557468 -3.56964 136 55 82
-1.00424 -0.548666 -3.57732 106 69 93
-1.00669 -0.538992 -3.57671 95 85 105
