ply
format ascii 1.0
element face 0
property list uchar int vertex_indices
element vertex 1280
property float x
property float y
property float z
property uchar diffuse_red
property uchar diffuse_green
property uchar diffuse_blue
end_header
1.78105 -0.7244 -3.69398 101 137 54
1.63732 0.0840341 -4.4924 187 197 182
1.63555 0.0906973 -4.50475 188 199 183
1.63453 0.100242 -4.50755 184 193 179
1.59378 0.401721 -4.67916 181 182 174
1.592 0.408384 -4.69151 183 184 176
1.59023 0.415047 -4.70385 179 178 171
1.58921 0.424592 -4.70665 165 165 158
1.57994 0.402437 -4.81446 156 157 144
1.57666 0.403336 -4.8459 161 164 150
1.57858 0.464572 -4.78074 174 175 166
1.57755 0.474117 -4.78354 174 177 166
1.57578 0.48078 -4.79589 170 172 161
1.58451 0.527789 -4.67459 193 199 193
1.57817 0.557324 -4.71443 187 194 188
1.5546 0.817024 -4.74908 204 214 210
1.52381 1.1837 -4.77355 222 229 230
1.52429 1.19901 -4.75726 222 229 230
1.52225 1.2181 -4.76286 222 229 230
1.51666 1.25052 -4.79316 227 234 235
1.51489 1.25718 -4.8055 226 234 234
1.49895 1.46537 -4.80425 221 230 230
1.48668 1.57992 -4.83786 212 220 222
1.48191 1.57505 -4.8884 215 224 224
1.4704 1.69247 -4.91247 205 214 215
1.46862 1.69914 -4.92481 206 215 215
1.4646 1.69716 -4.9658 206 215 216
1.46358 1.7067 -4.9686 205 214 215
1.46031 1.7076 -5.00004 207 217 218
1.4844 2.0561 -4.49958 36 21 19
1.43949 2.2877 -4.76499 26 17 15
1.43696 2.29148 -4.78689 26 17 15
1.41993 2.40116 -4.87103 24 15 13
1.4174 2.40494 -4.89293 24 15 13
1.41563 2.41161 -4.90527 24 15 13
1.75976 -0.560651 -3.87792 112 117 109
1.64354 -0.117997 -4.6833 161 189 149
1.64928 0.0657094 -4.48781 188 200 183
1.64649 0.0819177 -4.50296 183 194 178
1.64547 0.0914628 -4.50576 187 197 183
1.61377 0.239137 -4.70497 161 165 153
1.59612 0.265606 -4.85823 151 162 138
1.5951 0.275151 -4.86103 157 167 144
1.59182 0.276051 -4.89247 163 179 152
1.59088 0.393657 -4.81267 152 151 140
1.58911 0.40032 -4.82502 146 147 134
1.59054 0.446247 -4.77615 177 177 168
1.58877 0.45291 -4.78849 178 179 170
1.5885 0.465337 -4.78175 175 176 168
1.58522 0.466237 -4.81319 167 169 157
1.59443 0.528555 -4.6756 192 198 192
1.59191 0.532336 -4.69749 195 201 195
1.58278 0.578079 -4.75248 197 206 200
1.57508 0.669749 -4.7586 191 200 194
1.56364 0.895233 -4.70007 207 216 212
1.5586 0.902796 -4.74386 205 214 209
1.53142 1.21599 -4.77342 221 228 229
1.52862 1.23219 -4.78857 223 231 231
1.52835 1.24462 -4.78182 226 234 234
1.52733 1.25417 -4.78462 227 235 235
1.50376 1.51387 -4.81927 219 229 228
1.50123 1.51765 -4.84116 218 228 228
1.49565 1.55006 -4.87146 218 227 227
1.49435 1.57204 -4.86751 213 222 223
1.49258 1.5787 -4.87986 213 222 222
1.49204 1.60355 -4.86637 209 217 218
1.49074 1.62552 -4.86243 208 215 217
1.48032 1.69324 -4.91348 205 214 214
1.47302 1.69216 -4.9859 206 216 216
1.472 1.7017 -4.9887 206 216 217
1.47023 1.70837 -5.00105 206 216 217
1.44655 2.34484 -4.75137 25 16 14
1.42732 2.40571 -4.89394 24 15 13
1.42555 2.41237 -4.90629 24 15 13
1.65782 -0.167838 -4.67985 137 163 128
1.65845 0.063593 -4.49836 188 200 183
1.65743 0.0731381 -4.50116 187 198 183
1.65566 0.0798013 -4.51351 184 196 179
1.65464 0.0893464 -4.51631 183 193 177
1.62397 0.227475 -4.71273 165 171 157
1.62444 0.242784 -4.69644 180 184 174
1.60529 0.26349 -4.86879 168 181 157
1.60201 0.264389 -4.90023 168 186 158
1.61211 0.397488 -4.70027 187 187 180
1.60134 0.369569 -4.82717 160 162 150
1.60032 0.379114 -4.82998 154 156 143
1.5963 0.377131 -4.87096 155 159 144
1.60046 0.447012 -4.77716 174 175 166
1.59869 0.453676 -4.78951 179 180 170
1.59692 0.460339 -4.80185 180 182 171
1.59514 0.467002 -4.8142 174 175 164
1.60537 0.519775 -4.67381 195 200 195
1.6036 0.526438 -4.68615 201 207 201
1.56954 0.894016 -4.74207 205 215 210
1.56777 0.90068 -4.75441 205 213 209
1.5647 0.929315 -4.76282 206 215 210
1.53302 1.22521 -4.84965 224 231 230
1.51729 1.46114 -4.82536 220 230 230
1.50277 1.56704 -4.88762 217 226 226
1.49895 1.59279 -4.90557 212 221 221
1.50018 1.61098 -4.87973 210 218 219
1.49616 1.609 -4.92072 210 219 218
1.48219 1.69004 -4.99646 208 218 218
1.48117 1.69959 -4.99926 204 214 215
1.47789 1.70049 -5.0307 210 220 220
1.47762 1.71291 -5.02396 208 217 219
1.43974 2.10624 -5.09782 36 26 22
1.42181 2.14514 -5.24433 42 27 25
1.45646 2.3456 -4.75238 24 15 13
1.45469 2.35227 -4.76473 24 15 13
1.43547 2.41314 -4.9073 24 15 13
1.77993 -0.61171 -3.91646 118 122 109
1.77864 -0.589738 -3.91252 115 118 109
1.82592 -0.111732 -3.08634 69 57 53
1.67 -0.0102033 -4.53984 171 189 165
1.6666 0.0710218 -4.51172 184 194 179
1.65501 0.0803835 -4.61839 175 193 168
1.64867 0.109918 -4.65823 171 186 162
1.63593 0.209151 -4.70814 175 183 167
1.63641 0.224459 -4.69185 178 182 172
1.62231 0.385827 -4.70803 173 174 166
1.61453 0.369435 -4.79675 158 159 149
1.61051 0.367452 -4.83773 161 163 150
1.60949 0.376998 -4.84053 160 162 150
1.61597 0.415361 -4.74787 166 166 158
1.60963 0.444896 -4.78771 177 178 169
1.60711 0.448677 -4.80961 179 180 170
1.60533 0.455341 -4.82196 178 180 168
1.61481 0.505232 -4.69111 189 194 189
1.61379 0.514777 -4.69391 195 201 195
1.61277 0.524322 -4.69671 198 204 198
1.60725 0.516576 -4.75679 180 187 179
1.60289 0.567183 -4.76125 195 205 199
1.60187 0.576728 -4.76405 201 210 204
1.57871 0.8919 -4.75262 206 216 211
1.54744 1.24327 -4.79339 222 229 230
1.54492 1.24705 -4.81528 225 233 233
1.51296 1.55538 -4.89537 217 227 226
1.51344 1.57068 -4.87908 213 222 222
1.51092 1.57447 -4.90098 215 224 224
1.50915 1.58113 -4.91332 214 223 223
1.50887 1.59356 -4.90658 213 222 221
1.5101 1.61175 -4.88074 210 217 218
1.50608 1.60976 -4.92173 211 220 219
1.50431 1.61643 -4.93407 211 220 219
1.49034 1.69747 -5.00982 206 216 217
1.44435 2.127 -5.13587 40 27 23
1.43855 2.13168 -5.1892 42 29 26
1.46461 2.35303 -4.76574 24 15 13
1.45752 2.37969 -4.81513 25 16 14
1.45575 2.38635 -4.82748 25 16 14
1.82258 -0.61994 -3.60307 101 134 76
1.7891 -0.613827 -3.92702 117 120 108
1.85534 -0.184262 -2.95153 73 66 55
1.81576 0.323794 -2.95514 78 72 55
1.68067 -0.00655588 -4.53131 170 187 163
1.67931 0.0555789 -4.49758 183 192 177
1.67325 0.0726867 -4.54417 179 191 173
1.67298 0.0851137 -4.53743 179 188 173
1.66241 0.0849303 -4.64129 171 188 164
1.66064 0.0915935 -4.65364 175 192 167
1.65886 0.0982568 -4.66599 169 185 160
1.64837 0.206135 -4.68726 175 182 169
1.64735 0.21568 -4.69006 184 189 178
1.6222 0.361555 -4.82639 156 157 146
1.62043 0.368218 -4.83874 160 161 150
1.61941 0.377763 -4.84154 160 160 148
1.61982 0.433235 -4.79547 180 181 171
1.6188 0.44278 -4.79827 179 180 171
1.61628 0.446561 -4.82017 179 180 169
1.61894 0.510678 -4.74545 187 194 186
1.61567 0.511578 -4.77689 182 189 181
1.61239 0.512477 -4.80833 187 195 185
1.58788 0.889784 -4.76318 207 216 211
1.57922 0.950836 -4.80188 203 213 205
1.57438 0.986134 -4.82263 203 215 202
1.55559 1.2507 -4.80675 224 232 233
1.5297 1.54192 -4.84025 213 223 223
1.5254 1.55236 -4.87449 215 224 225
1.52288 1.55614 -4.89638 216 225 225
1.52336 1.57145 -4.88009 212 221 221
1.51906 1.58189 -4.91433 215 223 223
1.51804 1.59144 -4.91713 213 221 221
1.51852 1.60675 -4.90084 210 218 218
1.51525 1.60765 -4.93228 212 220 219
1.51423 1.61719 -4.93508 210 219 218
1.50128 1.68869 -5.00803 206 216 217
1.49553 2.28627 -4.61183 23 14 12
1.46744 2.38045 -4.81614 24 16 14
1.46492 2.38423 -4.83803 25 16 14
1.87847 -1.34515 -3.70279 129 135 121
1.86553 -0.195924 -2.95928 72 64 57
1.69455 0.0363548 -4.46155 178 187 173
1.68951 0.0439175 -4.50534 183 192 176
1.68698 0.0476988 -4.52723 179 190 173
1.68596 0.0572439 -4.53003 180 190 174
1.68494 0.066789 -4.53284 181 190 175
1.67989 0.0743517 -4.57662 170 184 163
1.67437 0.0666056 -4.6367 168 187 161
1.67335 0.0761507 -4.6395 169 187 162
1.67308 0.0885777 -4.63276 164 180 157
1.6698 0.0894772 -4.6642 168 185 160
1.66803 0.0961404 -4.67655 161 178 153
1.66238 0.16872 -4.67706 172 180 163
1.65781 0.191591 -4.70456 174 184 168
1.63062 0.356556 -4.8465 166 168 157
1.6296 0.366102 -4.8493 169 169 157
1.63608 0.404465 -4.75664 173 171 164
1.62899 0.431118 -4.80603 177 177 168
1.62647 0.4349 -4.82792 173 174 163
1.62544 0.444445 -4.83072 179 179 168
1.62988 0.501899 -4.74366 186 191 185
1.62811 0.508562 -4.75601 181 189 181
1.62375 0.559169 -4.76047 201 211 206
1.58533 0.977354 -4.82084 202 215 203
1.5386 1.55223 -4.84406 213 222 223
1.53307 1.54448 -4.90414 215 226 225
1.53355 1.55979 -4.88785 211 221 221
1.53178 1.56645 -4.9002 213 222 221
1.52926 1.57023 -4.92209 214 223 223
1.52748 1.5769 -4.93444 214 223 222
1.52571 1.58356 -4.94678 215 224 222
1.52619 1.59887 -4.93049 212 221 219
1.52742 1.61706 -4.90466 207 215 216
1.5234 1.61508 -4.94564 210 219 218
1.56236 2.10154 -4.19469 39 22 19
1.48445 2.35456 -4.76776 25 16 14
1.47988 2.37744 -4.79526 24 15 13
1.47736 2.38122 -4.81715 24 16 13
1.47484 2.385 -4.83904 24 16 13
1.77703 -0.640582 -4.26368 111 112 100
1.77601 -0.631036 -4.26648 110 111 99
1.70372 0.0342384 -4.47211 179 188 174
1.6969 0.0484643 -4.52824 179 187 172
1.69261 0.0589089 -4.56248 174 185 167
1.69159 0.068454 -4.56529 174 186 167
1.67182 0.154176 -4.69436 165 176 156
1.6708 0.163722 -4.69716 171 180 163
1.66978 0.173267 -4.69997 167 178 160
1.67025 0.188575 -4.68367 181 189 175
1.66821 0.207666 -4.68928 184 193 181
1.64306 0.353541 -4.82561 161 163 153
1.64129 0.360204 -4.83796 158 159 148
1.63727 0.358221 -4.87895 161 164 151
1.63932 0.487355 -4.76096 187 193 186
1.63755 0.494019 -4.77331 180 187 179
1.63469 0.55039 -4.75868 197 206 200
1.54831 1.52526 -4.86811 215 225 225
1.55029 1.54633 -4.83272 212 220 222
1.54701 1.54723 -4.86416 212 221 221
1.54524 1.55389 -4.87651 212 221 222
1.54272 1.55767 -4.8984 214 224 224
1.5417 1.56722 -4.90121 211 221 221
1.53918 1.571 -4.9231 213 222 221
1.53815 1.58054 -4.9259 213 222 221
1.53863 1.59585 -4.90961 210 218 218
1.53761 1.6054 -4.91241 209 217 217
1.53734 1.61782 -4.90567 207 215 215
1.53331 1.61584 -4.94665 211 219 218
1.53229 1.62539 -4.94945 210 218 217
1.57364 2.04018 -4.22942 40 21 20
1.49969 2.33534 -4.73173 24 15 13
1.49791 2.342 -4.74408 24 15 13
1.49614 2.34867 -4.75642 24 15 13
1.49437 2.35533 -4.76877 24 15 13
1.4883 2.37244 -4.81536 24 15 13
1.48728 2.38198 -4.81816 24 15 13
1.48476 2.38576 -4.84005 24 16 13
1.85111 -0.635834 -3.63194 96 126 64
1.78517 -0.781377 -4.38942 129 126 114
1.78491 -0.620726 -4.27029 106 106 94
1.71241 0.0168132 -4.49896 181 194 177
1.70914 0.0177127 -4.5304 178 190 170
1.70812 0.0272578 -4.5332 176 188 169
1.70859 0.0425666 -4.51691 173 183 167
1.69346 0.0652548 -4.64827 159 177 152
1.6906 0.121626 -4.63364 172 182 165
1.68351 0.148279 -4.68303 172 182 165
1.68249 0.157824 -4.68583 170 178 162
1.68072 0.164487 -4.69818 175 185 167
1.64971 0.355206 -4.85807 158 161 148
1.64794 0.361869 -4.87041 167 171 158
1.64466 0.362768 -4.90185 161 166 151
1.65264 0.406896 -4.7901 176 174 167
1.65012 0.410677 -4.81199 171 170 162
1.65504 0.48344 -4.70864 190 196 190
1.65026 0.478576 -4.75917 188 195 186
1.64849 0.485239 -4.77152 179 185 177
1.64822 0.497666 -4.76478 181 188 181
1.58228 1.28163 -4.81818 221 230 230
1.57254 1.39239 -4.8299 227 235 235
1.56607 1.50225 -4.81018 215 223 224
1.56402 1.52134 -4.81578 211 218 220
1.563 1.53089 -4.81859 211 218 219
1.56048 1.53467 -4.84048 209 218 219
1.55946 1.54421 -4.84328 211 218 220
1.55768 1.55088 -4.85563 210 217 219
1.55516 1.55466 -4.87752 211 220 221
1.55414 1.5642 -4.88032 210 218 219
1.55162 1.56798 -4.90222 210 219 219
1.55134 1.58041 -4.89547 208 216 216
1.54807 1.58131 -4.92691 211 220 219
1.54555 1.58509 -4.94881 213 221 220
1.54378 1.59175 -4.96115 214 223 222
1.54426 1.60706 -4.94486 210 218 218
1.54221 1.62615 -4.95046 210 218 217
1.53969 1.62993 -4.97236 211 219 218
1.5792 2.09155 -4.2349 39 22 19
1.51246 2.27973 -4.74737 24 15 13
1.50961 2.33611 -4.73274 23 14 12
1.50783 2.34277 -4.74509 23 14 12
1.50606 2.34943 -4.75743 24 15 13
1.50429 2.3561 -4.76978 23 14 12
1.49822 2.3732 -4.81637 23 14 12
1.49645 2.37987 -4.82872 23 14 12
1.49468 2.38653 -4.84107 24 15 13
1.87375 -1.03075 -3.80781 137 144 120
1.80607 -0.724956 -4.24049 121 123 111
1.80423 -0.67813 -4.22305 115 118 105
1.717 -0.110656 -4.64939 169 187 162
1.72464 -0.0139385 -4.50111 182 195 177
1.72287 -0.00727524 -4.51346 181 194 176
1.72458 0.0262243 -4.47133 176 184 171
1.72056 0.0242419 -4.51231 177 187 171
1.72028 0.0366689 -4.50557 176 185 171
1.70331 0.106183 -4.6195 177 187 170
1.70004 0.107083 -4.65094 167 180 161
1.69977 0.119509 -4.64419 172 182 166
1.69725 0.123291 -4.66609 168 179 161
1.69343 0.149044 -4.68404 171 179 164
1.69016 0.149944 -4.71548 169 180 162
1.68934 0.187225 -4.69524 185 193 180
1.67387 0.262503 -4.79008 177 180 170
1.66528 0.283392 -4.85856 177 183 169
1.67497 0.361019 -4.70468 180 182 173
1.66065 0.346426 -4.85628 166 169 157
1.65888 0.353089 -4.86862 161 165 152
1.65786 0.362634 -4.87142 167 171 158
1.65533 0.366416 -4.89332 167 172 158
1.65506 0.378843 -4.88657 170 173 160
1.66004 0.411443 -4.813 175 172 165
1.65752 0.415224 -4.8349 156 154 145
1.66523 0.471779 -4.7164 186 192 186
1.66345 0.478442 -4.72874 196 202 196
1.66018 0.479341 -4.76018 182 189 181
1.65691 0.480241 -4.79163 180 188 179
1.65814 0.498431 -4.76579 188 196 189
1.65269 0.598747 -4.74327 198 205 200
1.64827 0.689517 -4.71794 200 208 203
1.63974 0.670243 -4.81621 196 204 199
1.57701 1.49347 -4.80839 215 223 224
1.57449 1.49725 -4.83029 216 224 225
1.56004 1.56298 -4.92232 211 220 220
1.55874 1.58496 -4.91838 210 218 219
1.55547 1.58586 -4.94982 211 220 219
1.55595 1.60117 -4.93352 210 218 218
1.55268 1.60206 -4.96496 212 221 220
1.55165 1.61161 -4.96777 210 219 217
1.55063 1.62115 -4.97057 210 218 218
1.54961 1.6307 -4.97337 208 217 216
1.58762 2.08655 -4.255 39 22 19
1.58735 2.09898 -4.24825 40 24 20
1.58557 2.10564 -4.2606 39 22 20
1.5277 2.26051 -4.71134 24 15 13
1.50896 2.33669 -4.83762 24 15 13
1.50262 2.36622 -4.87746 24 15 13
1.5001 2.37 -4.89935 24 15 13
1.88367 -1.02998 -3.80882 137 143 119
1.81442 -0.689792 -4.23081 115 116 104
1.72644 -0.125199 -4.66669 168 185 161
1.72617 -0.112772 -4.65995 173 190 166
1.73709 -0.0169543 -4.48023 183 195 178
1.73081 -0.0275823 -4.54985 174 190 167
1.72754 -0.0266828 -4.58129 177 192 168
1.7315 0.0154623 -4.51052 173 183 167
1.73123 0.0278893 -4.50378 177 186 171
1.71705 0.0811951 -4.60256 171 183 164
1.71678 0.0936221 -4.59581 170 180 163
1.7135 0.0945216 -4.62725 168 181 161
1.71248 0.104067 -4.63006 176 188 170
1.70969 0.120275 -4.6452 183 193 177
1.70792 0.126938 -4.65755 185 194 179
1.70185 0.144046 -4.70414 165 175 158
1.69933 0.147827 -4.72603 167 178 160
1.69605 0.148727 -4.75747 171 184 164
1.68508 0.241296 -4.79503 173 180 166
1.68154 0.254622 -4.81973 178 183 171
1.67622 0.274612 -4.85677 185 191 177
1.67595 0.287039 -4.85002 171 174 164
1.67493 0.296584 -4.85283 168 171 161
1.67159 0.337646 -4.85448 175 177 166
1.66982 0.34431 -4.86683 163 166 155
1.66702 0.360518 -4.88198 170 174 161
1.666 0.370063 -4.88478 171 175 162
1.67173 0.405545 -4.80167 168 165 157
1.66996 0.412208 -4.81401 164 162 154
1.66744 0.41599 -4.83591 156 153 144
1.67467 0.457235 -4.7337 185 190 182
1.6744 0.469662 -4.72695 191 197 190
1.67112 0.470562 -4.75839 189 194 186
1.66295 0.546922 -4.7808 200 208 203
1.66261 0.599512 -4.74428 197 204 200
1.65246 0.6548 -4.80207 199 208 202
1.65137 0.704508 -4.77509 201 209 205
1.57473 1.56861 -4.8728 207 214 215
1.56968 1.57618 -4.91659 209 217 218
1.56866 1.58572 -4.91939 208 217 217
1.56539 1.58662 -4.95083 211 220 220
1.56587 1.60193 -4.93454 208 216 217
1.56334 1.60571 -4.95643 208 216 216
1.5598 1.61904 -4.98112 211 219 219
1.59577 2.09398 -4.26836 40 24 20
1.59399 2.10064 -4.2807 39 22 20
1.59372 2.11307 -4.27396 39 22 20
1.52576 2.28306 -4.81227 24 16 14
1.5169 2.31638 -4.87401 23 15 13
1.51437 2.32016 -4.8959 23 15 13
1.5126 2.32683 -4.90825 23 15 13
1.50906 2.34015 -4.93295 23 15 13
1.50074 2.34861 -5.00817 22 14 13
1.87459 -0.644165 -3.7046 84 109 65
1.82939 -0.696589 -4.18803 114 115 105
1.88101 0.363868 -2.87808 40 43 30
1.73991 -0.13776 -4.64301 169 185 162
1.73588 -0.139742 -4.684 170 187 164
1.74428 -0.0401433 -4.52617 180 194 174
1.741 -0.0392438 -4.55761 173 188 166
1.73153 0.0590891 -4.57607 175 183 169
1.73051 0.0686341 -4.57887 180 188 173
1.72874 0.0752974 -4.59122 172 182 164
1.72547 0.0761969 -4.62266 174 187 166
1.72445 0.085742 -4.62546 177 189 170
1.72342 0.0952871 -4.62826 178 189 171
1.72165 0.10195 -4.64061 174 186 167
1.71913 0.105732 -4.66251 174 186 167
1.71811 0.115277 -4.66531 177 187 171
1.71456 0.128603 -4.69 173 184 168
1.71102 0.14193 -4.7147 168 179 162
1.70549 0.134184 -4.77478 173 189 165
1.71047 0.166784 -4.70121 178 184 171
1.69398 0.251607 -4.79884 178 182 172
1.69296 0.261152 -4.80165 182 185 176
1.68764 0.281141 -4.83869 177 180 170
1.68512 0.284923 -4.86058 173 176 165
1.6841 0.294468 -4.86338 171 174 164
1.68076 0.33553 -4.86504 157 160 149
1.67899 0.342193 -4.87739 159 162 150
1.68295 0.384338 -4.80662 178 177 168
1.68042 0.38812 -4.82851 181 181 172
1.67865 0.394783 -4.84086 174 172 163
1.67763 0.404328 -4.84366 160 157 149
1.68459 0.458001 -4.73471 197 202 196
1.68357 0.467546 -4.73751 192 198 192
1.68329 0.479973 -4.73077 185 192 186
1.68152 0.486636 -4.74311 196 204 198
1.67076 0.606941 -4.75764 196 204 199
1.60985 1.23512 -4.87963 215 222 223
1.60958 1.24755 -4.87289 219 227 227
1.57994 1.52435 -4.95412 215 224 224
1.58267 1.54831 -4.90919 207 216 216
1.5824 1.56073 -4.90245 209 218 218
1.57987 1.56452 -4.92434 211 220 220
1.5796 1.57694 -4.9176 210 218 219
1.57708 1.58072 -4.93949 208 217 216
1.57531 1.58739 -4.95184 208 217 216
1.57326 1.60648 -4.95744 207 216 215
1.57149 1.61314 -4.96979 209 217 217
1.60214 2.10807 -4.29406 39 22 20
1.51673 2.33227 -4.9626 22 15 14
1.52041 2.38684 -4.88508 22 13 13
1.83358 -0.731305 -4.27216 118 119 108
1.83255 -0.72176 -4.27496 115 116 105
1.83153 -0.712215 -4.27776 114 115 104
1.83201 -0.696906 -4.26147 114 114 103
1.75876 -0.0622493 -4.49968 179 194 174
1.75774 -0.0527042 -4.50248 181 195 176
1.75672 -0.0431591 -4.50528 182 195 177
1.75195 -0.0480234 -4.55582 176 191 170
1.75092 -0.0384783 -4.55862 169 185 163
1.75515 -0.00876009 -4.4946 174 184 168
1.75413 0.000785002 -4.4974 168 178 162
1.74486 -0.0213705 -4.60521 167 183 160
1.74173 0.0474276 -4.58383 174 184 167
1.7422 0.0627364 -4.56754 176 184 170
1.74118 0.0722815 -4.57034 180 187 175
1.73566 0.0645354 -4.63042 173 186 165
1.73539 0.0769624 -4.62367 179 191 170
1.73436 0.0865075 -4.62647 181 193 174
1.73007 0.096952 -4.66072 177 190 171
1.7283 0.103615 -4.67306 181 193 175
1.72728 0.11316 -4.67586 177 188 170
1.7255 0.119824 -4.68821 180 192 174
1.72046 0.127386 -4.732 168 181 163
1.71992 0.15224 -4.71851 179 187 172
1.71024 0.222837 -4.76001 183 188 179
1.70417 0.239945 -4.8066 174 179 168
1.69961 0.262817 -4.8341 190 194 183
1.69783 0.26948 -4.84644 174 179 167
1.69381 0.267497 -4.88743 173 180 164
1.69422 0.322969 -4.84136 164 166 157
1.6917 0.32675 -4.86325 171 174 164
1.68993 0.333414 -4.8756 171 174 163
1.68563 0.343858 -4.90984 175 179 166
1.69286 0.385104 -4.80763 174 173 163
1.69034 0.388885 -4.82953 179 178 169
1.68857 0.395548 -4.84187 165 162 153
1.6868 0.402212 -4.85422 143 139 130
1.69478 0.446339 -4.74247 172 176 170
1.69376 0.455884 -4.74527 187 192 186
1.69348 0.468311 -4.73852 195 200 195
1.68946 0.466329 -4.77951 186 191 184
1.68742 0.485419 -4.78511 196 203 197
1.68204 0.545572 -4.79237 198 205 200
1.68101 0.555117 -4.79517 195 202 197
1.6802 0.592398 -4.77494 195 203 198
1.74416 1.64638 -3.34877 28 20 18
1.74239 1.65304 -3.36112 27 19 17
1.6195 1.24831 -4.8739 222 230 230
1.61697 1.25209 -4.89579 220 228 228
1.59443 1.50225 -4.92764 215 223 223
1.59238 1.52134 -4.93324 214 222 222
1.59586 1.54817 -4.87876 209 217 217
1.59184 1.54619 -4.91975 209 218 218
1.58857 1.54709 -4.95119 213 221 222
1.58979 1.56528 -4.92535 207 216 216
1.58802 1.57194 -4.9377 208 217 217
1.587 1.58149 -4.9405 208 216 217
1.58598 1.59103 -4.9433 207 214 215
1.5827 1.59193 -4.97474 210 219 218
1.58243 1.60436 -4.968 207 215 216
1.57991 1.60814 -4.98989 209 217 217
1.61029 2.1155 -4.30742 38 22 20
1.54941 2.25884 -4.79634 23 15 14
1.53046 2.30728 -4.94566 22 16 14
1.53244 2.32836 -4.91027 22 15 14
1.53285 2.38383 -4.8642 20 13 12
1.53108 2.39049 -4.87655 21 13 12
1.51956 2.35969 -5.013 19 14 12
1.84172 -0.723877 -4.28552 116 117 105
1.8392 -0.720095 -4.30741 114 115 104
1.76895 -0.0739108 -4.50744 180 194 175
1.76868 -0.0614838 -4.50069 181 194 176
1.76691 -0.0548206 -4.51304 184 197 179
1.76664 -0.0423936 -4.5063 180 193 175
1.75594 0.0377485 -4.5506 171 179 165
1.75267 0.038648 -4.58204 170 179 163
1.75315 0.0539568 -4.56575 170 177 164
1.75062 0.0577382 -4.58764 179 187 172
1.74885 0.0644014 -4.59999 187 195 181
1.74633 0.0681828 -4.62188 185 197 177
1.74381 0.0719641 -4.64378 184 196 176
1.74278 0.0815092 -4.64658 179 192 171
1.73924 0.0948357 -4.67127 175 187 168
1.73672 0.098617 -4.69317 173 187 166
1.73215 0.121489 -4.72066 168 182 162
1.71689 0.224502 -4.79246 181 186 175
1.71055 0.254037 -4.83231 184 188 177
1.70877 0.2607 -4.84465 184 188 178
1.70625 0.264482 -4.86655 185 191 178
1.70523 0.274027 -4.86935 183 189 176
1.70421 0.283572 -4.87215 174 178 167
1.69944 0.278708 -4.92268 173 177 162
1.70339 0.320853 -4.85191 168 171 162
1.6991 0.331297 -4.88616 174 178 167
1.69808 0.340842 -4.88896 166 169 158
1.6963 0.347506 -4.9013 162 166 154
1.69228 0.345523 -4.94229 170 175 160
1.70497 0.434678 -4.75022 182 185 179
1.70245 0.438459 -4.77212 174 177 170
1.70067 0.445122 -4.78446 164 169 160
1.70265 0.466195 -4.74908 198 203 198
1.69938 0.467094 -4.78052 191 196 189
1.69686 0.470876 -4.80241 195 200 193
1.69584 0.480421 -4.80521 193 199 193
1.69045 0.540573 -4.81247 196 202 198
1.69291 0.576955 -4.7608 198 205 200
1.69189 0.5865 -4.7636 198 205 200
1.68937 0.590281 -4.78549 196 203 199
1.68494 0.681051 -4.76017 203 210 206
1.68467 0.693478 -4.75343 202 209 205
1.68038 0.703923 -4.78767 204 212 207
1.67383 0.705722 -4.85055 198 207 202
1.67779 0.747867 -4.77978 204 212 209
1.64583 1.05619 -4.85987 203 215 202
1.64406 1.06286 -4.87222 204 216 203
1.64229 1.06952 -4.88457 200 212 199
1.64052 1.07618 -4.89691 202 214 200
1.6395 1.08573 -4.89972 200 211 198
1.75156 1.65092 -3.37168 28 20 18
1.62942 1.24908 -4.87491 219 227 228
1.62689 1.25286 -4.8968 221 229 230
1.60687 1.49923 -4.90675 213 221 221
1.6096 1.52319 -4.86182 208 213 215
1.60155 1.51922 -4.9438 214 223 222
1.60503 1.54606 -4.88932 209 216 216
1.60073 1.5565 -4.92356 208 216 217
1.59896 1.56316 -4.93591 208 216 216
1.59794 1.57271 -4.93871 206 215 214
1.59692 1.58225 -4.94151 205 213 214
1.5944 1.58604 -4.9634 207 215 215
1.59337 1.59558 -4.96621 208 216 215
1.5916 1.60224 -4.97855 207 215 216
1.59058 1.61179 -4.98135 209 217 217
1.55333 2.23655 -4.87373 23 16 15
1.54816 2.32444 -4.85795 20 13 12
1.54263 2.31669 -4.91803 20 15 13
1.54557 2.36838 -4.85006 19 11 11
1.54004 2.36064 -4.91014 20 12 12
1.53527 2.35577 -4.96067 19 13 12
1.52975 2.34803 -5.02075 18 13 12
1.53173 2.3691 -4.98537 18 13 12
1.53466 2.42079 -4.9174 19 13 12
1.96411 -1.18018 -3.52887 130 135 125
1.85089 -0.725993 -4.29607 113 114 103
1.8511 -0.698257 -4.27304 110 110 99
1.78446 -0.105562 -4.47815 172 189 167
1.78344 -0.0960168 -4.48095 177 193 172
1.78317 -0.0835899 -4.47421 180 195 175
1.78065 -0.0798085 -4.4961 186 201 181
1.77812 -0.0760271 -4.51799 178 192 172
1.77785 -0.0636002 -4.51125 178 191 173
1.77608 -0.0569369 -4.5236 179 192 173
1.77431 -0.0502737 -4.53594 174 187 168
1.76851 -0.0455929 -4.58928 168 183 160
1.7664 0.0136601 -4.5651 174 184 166
1.76184 0.0365316 -4.5926 173 183 166
1.76156 0.0489586 -4.58585 184 193 178
1.75979 0.0556218 -4.5982 184 194 178
1.75952 0.0680488 -4.59145 182 189 176
1.7555 0.0660664 -4.63244 183 196 176
1.75297 0.0698478 -4.65433 177 190 169
1.74841 0.0927193 -4.68183 178 190 170
1.74486 0.106046 -4.70652 175 189 169
1.72858 0.218605 -4.78112 181 184 176
1.71972 0.251921 -4.84286 186 190 180
1.71644 0.25282 -4.8743 183 189 176
1.71542 0.262365 -4.8771 185 191 178
1.7144 0.27191 -4.8799 178 184 171
1.71508 0.314955 -4.84058 170 174 166
1.71331 0.321618 -4.85292 169 171 163
1.70854 0.316754 -4.90346 164 168 157
1.70902 0.332063 -4.88717 175 179 168
1.708 0.341608 -4.88997 172 175 164
1.70397 0.339626 -4.93095 174 180 166
1.71489 0.435443 -4.75123 193 197 190
1.71312 0.442106 -4.76358 196 202 195
1.71209 0.451652 -4.76638 186 193 187
1.70807 0.449669 -4.80737 179 186 177
1.70501 0.478304 -4.81577 195 202 196
1.7014 0.531794 -4.81068 197 205 200
1.70187 0.547103 -4.79439 196 203 198
1.70208 0.574838 -4.77136 195 202 196
1.70181 0.587265 -4.76461 199 207 201
1.70154 0.599692 -4.75787 197 204 199
1.69376 0.583301 -4.84658 196 203 198
1.68852 0.711352 -4.80103 206 215 211
1.68873 0.739087 -4.77799 208 216 213
1.655 1.05408 -4.87043 204 216 205
1.65323 1.06074 -4.88278 202 215 202
1.65146 1.0674 -4.89512 201 215 201
1.65044 1.07695 -4.89793 202 215 202
1.64941 1.08649 -4.90073 202 213 201
1.71021 1.7646 -3.79033 36 24 23
1.6236 1.48577 -4.85163 211 218 220
1.61658 1.47226 -4.9308 219 227 227
1.61229 1.48271 -4.96504 217 225 224
1.61147 1.51999 -4.94481 214 222 222
1.61045 1.52953 -4.94761 213 221 222
1.60915 1.5515 -4.94366 210 218 218
1.60588 1.5524 -4.9751 214 222 222
1.60711 1.57059 -4.94927 209 217 216
1.60684 1.58302 -4.94252 206 214 214
1.60282 1.58104 -4.98351 212 220 220
1.60179 1.59058 -4.98631 208 216 216
1.6261 2.11505 -4.35043 36 20 18
1.5576 2.3099 -4.87525 18 12 11
1.55282 2.30503 -4.92578 19 13 12
1.55501 2.35384 -4.86736 17 10 9
1.54288 2.38806 -4.96054 16 10 9
1.86574 -0.504241 -4.08135 92 94 88
1.79363 -0.107678 -4.48871 170 189 166
1.79234 -0.0857062 -4.48476 180 196 174
1.78981 -0.0819249 -4.50666 182 197 176
1.78729 -0.0781435 -4.52855 177 191 171
1.78627 -0.0685984 -4.53135 175 189 169
1.78375 -0.064817 -4.55325 173 187 166
1.78123 -0.0610357 -4.57514 170 184 163
1.77809 0.00776235 -4.55376 177 187 170
1.7753 0.0239707 -4.56891 179 188 173
1.77353 0.0306339 -4.58126 176 185 169
1.77251 0.040179 -4.58406 181 190 174
1.77073 0.0468422 -4.59641 181 189 174
1.76821 0.0506236 -4.6183 185 194 178
1.76569 0.0544049 -4.64019 180 192 173
1.76317 0.0581863 -4.66209 174 188 165
1.76214 0.0677314 -4.66489 175 189 167
1.76037 0.0743946 -4.67724 175 189 167
1.75506 0.0943843 -4.71428 176 188 168
1.75478 0.106811 -4.70753 175 186 167
1.73802 0.204061 -4.79843 182 187 175
1.72916 0.237377 -4.86016 187 193 179
1.72814 0.246922 -4.86297 187 192 180
1.72636 0.253586 -4.87531 190 195 182
1.72459 0.260249 -4.88766 179 186 172
1.73005 0.308158 -4.7978 184 186 180
1.72828 0.314821 -4.81015 184 187 180
1.72425 0.312839 -4.85113 167 171 164
1.72248 0.319502 -4.86348 171 174 167
1.72146 0.329047 -4.86628 175 178 170
1.71894 0.332828 -4.88818 183 187 177
1.71791 0.342373 -4.89098 176 178 168
1.71314 0.337509 -4.94151 183 188 175
1.71362 0.352818 -4.92522 175 178 166
1.71185 0.359481 -4.93757 177 180 167
1.72406 0.433327 -4.76179 189 193 187
1.72304 0.442872 -4.76459 192 200 193
1.72126 0.449535 -4.77694 196 203 197
1.71949 0.456198 -4.78929 197 205 199
1.71057 0.529677 -4.82124 195 203 198
1.7075 0.558313 -4.82964 194 202 197
1.71248 0.590913 -4.75608 201 207 203
1.7047 0.574521 -4.84479 195 203 198
1.70478 0.682582 -4.76219 200 208 204
1.70376 0.692127 -4.76499 203 210 206
1.70199 0.698791 -4.77734 204 212 207
1.6949 0.725443 -4.82673 205 214 210
1.66567 1.05772 -4.86189 202 213 203
1.6639 1.06439 -4.87424 202 214 202
1.66213 1.07105 -4.88659 202 214 202
1.7714 1.65245 -3.3737 25 18 16
1.63277 1.48365 -4.86219 211 217 220
1.62446 1.49212 -4.93741 215 223 223
1.62793 1.51895 -4.88294 209 216 216
1.62691 1.5285 -4.88574 209 217 217
1.62439 1.53228 -4.90763 210 217 217
1.62112 1.53318 -4.93907 210 218 218
1.6231 1.55425 -4.90369 205 212 214
1.61907 1.55227 -4.94467 208 216 216
1.61355 1.54452 -5.00475 214 222 221
1.61628 1.56848 -4.95982 208 216 215
1.61526 1.57802 -4.96262 205 213 213
1.61423 1.58757 -4.96543 205 213 213
1.60919 1.59513 -5.00921 210 218 218
1.56779 2.29824 -4.88301 16 11 9
1.56043 2.33732 -4.92565 14 10 8
1.55307 2.3764 -4.9683 14 8 7
1.98599 -1.19773 -3.52529 157 158 153
1.95634 -1.06915 -3.71891 151 149 146
1.88615 -0.611353 -4.0611 100 100 90
1.88134 -0.131382 -3.7447 68 60 61
1.8043 -0.104031 -4.48017 177 194 172
1.80178 -0.10025 -4.50207 182 199 176
1.80151 -0.0878226 -4.49532 180 197 174
1.79823 -0.0869231 -4.52676 177 192 171
1.79796 -0.0744961 -4.52002 178 192 172
1.79292 -0.0669334 -4.5638 169 183 163
1.79006 -0.0105623 -4.54917 177 187 171
1.78904 -0.00101724 -4.55197 179 189 173
1.78651 0.00276412 -4.57387 181 191 174
1.78372 0.0189724 -4.58901 178 188 171
1.7812 0.0227538 -4.61091 176 187 169
1.78017 0.0322989 -4.61371 180 189 172
1.7784 0.0389621 -4.62606 182 192 175
1.77234 0.0560699 -4.67265 175 188 166
1.77104 0.078042 -4.6687 176 188 168
1.76702 0.0760596 -4.70969 171 186 162
1.76422 0.0922679 -4.72484 175 188 167
1.7401 0.228598 -4.85837 187 193 178
1.73833 0.235261 -4.87072 184 190 175
1.73655 0.241924 -4.88307 189 195 180
1.73553 0.251469 -4.88587 188 194 180
1.74174 0.30226 -4.78646 185 188 180
1.74072 0.311805 -4.78926 194 197 190
1.73895 0.318468 -4.80161 194 197 191
1.73567 0.319368 -4.83305 179 183 176
1.7324 0.320267 -4.86449 175 180 172
1.73213 0.332694 -4.85775 187 191 183
1.73036 0.339358 -4.87009 187 190 181
1.72756 0.355566 -4.88524 188 188 178
1.72654 0.365111 -4.88804 171 169 159
1.73173 0.425447 -4.79144 194 197 190
1.72689 0.460745 -4.81219 198 205 199
1.72512 0.467409 -4.82454 194 201 195
1.72048 0.530443 -4.82225 196 204 198
1.71967 0.567724 -4.80202 195 203 197
1.72015 0.583033 -4.78572 201 208 203
1.71988 0.59546 -4.77898 203 210 205
1.7121 0.579068 -4.8677 197 204 199
1.71108 0.588613 -4.8705 196 203 198
1.71122 0.656511 -4.81768 201 209 203
1.7132 0.677584 -4.7823 203 210 206
1.71143 0.684247 -4.79464 202 209 205
1.71116 0.696674 -4.7879 205 212 208
1.70938 0.703337 -4.80025 205 213 209
1.70209 0.702255 -4.87267 200 209 204
1.70407 0.723327 -4.83729 207 216 212
1.70304 0.732872 -4.84009 205 214 210
1.68738 0.928638 -4.84558 209 218 213
1.67307 1.06227 -4.8848 202 215 204
1.78813 1.63899 -3.31858 25 17 15
1.78561 1.64277 -3.34047 26 18 16
1.65475 1.34214 -4.85262 219 227 228
1.63717 1.47667 -4.92328 217 225 226
1.63212 1.48424 -4.96706 217 225 226
1.6371 1.51684 -4.89349 213 219 221
1.63608 1.52638 -4.8963 209 216 217
1.63281 1.52728 -4.92774 209 217 217
1.63329 1.54259 -4.91144 204 211 212
1.62824 1.55015 -4.95523 205 213 213
1.62695 1.57212 -4.95129 207 215 215
1.56987 2.32277 -4.94295 13 9 7
1.56585 2.32079 -4.98394 14 9 8
1.99591 -1.19697 -3.5263 168 169 164
1.9653 -1.099 -3.7525 157 156 150
1.88092 -0.736124 -4.30585 110 110 99
1.89559 -0.625896 -4.0784 100 100 91
1.81626 -0.122356 -4.47558 182 197 176
1.81449 -0.115692 -4.48793 177 195 172
1.81197 -0.111911 -4.50982 178 196 173
1.80992 -0.0928208 -4.51542 176 193 170
1.8089 -0.0832757 -4.51823 175 191 168
1.80713 -0.0766125 -4.53057 173 188 167
1.80025 -0.0222238 -4.55693 176 187 170
1.7967 -0.00889734 -4.58162 178 188 171
1.79493 -0.00223412 -4.59397 181 191 174
1.79316 0.00442911 -4.60632 179 190 172
1.79289 0.0168561 -4.59957 179 189 172
1.79112 0.0235193 -4.61192 177 188 170
1.78934 0.0301825 -4.62427 185 194 178
1.78682 0.0339639 -4.64616 177 189 170
1.78505 0.0406271 -4.65851 178 190 170
1.76774 0.162731 -4.73591 185 190 180
1.76597 0.169394 -4.74826 182 187 178
1.75104 0.219818 -4.85658 188 193 180
1.75077 0.232245 -4.84984 181 185 175
1.749 0.238908 -4.86219 182 187 175
1.74647 0.24269 -4.88408 185 190 178
1.75166 0.303026 -4.78747 192 195 188
1.74989 0.309689 -4.79982 193 197 190
1.74811 0.316352 -4.81217 195 199 193
1.74409 0.31437 -4.85316 174 179 172
1.74457 0.329678 -4.83686 191 195 188
1.7428 0.336342 -4.84921 189 192 184
1.74103 0.343005 -4.86156 200 202 194
1.7385 0.346786 -4.88345 191 193 185
1.73748 0.356331 -4.88625 187 186 178
1.73571 0.362995 -4.8986 177 175 166
1.73504 0.468174 -4.82555 199 205 200
1.72734 0.559844 -4.83167 194 202 197
1.73082 0.58668 -4.77719 199 206 202
1.7255 0.60667 -4.81423 201 208 203
1.72673 0.62486 -4.78839 200 207 202
1.72271 0.622878 -4.82938 197 204 199
1.71937 0.66394 -4.83104 202 210 204
1.7206 0.682131 -4.8052 202 209 204
1.71732 0.68303 -4.83664 202 210 205
1.71044 0.737419 -4.86299 203 212 208
1.68714 0.984692 -4.90439 199 212 200
1.68551 1.05925 -4.86391 204 214 205
1.66309 1.22908 -4.95532 212 215 213
1.66207 1.23863 -4.95812 212 217 214
1.66705 1.27123 -4.88455 213 220 223
1.66521 1.31805 -4.86712 220 228 230
1.64457 1.48122 -4.94618 215 224 224
1.64279 1.48788 -4.95853 214 222 223
1.63952 1.48878 -4.98997 217 224 225
1.64225 1.51274 -4.94504 211 220 221
1.64096 1.53471 -4.94109 205 213 214
1.63843 1.53849 -4.96299 207 215 216
1.63591 1.54227 -4.98488 210 218 218
1.63789 1.56334 -4.9495 204 211 212
1.82645 -0.134017 -4.48334 183 199 177
1.82468 -0.127354 -4.49568 183 199 178
1.82366 -0.117809 -4.49848 177 195 172
1.82264 -0.108264 -4.50129 175 192 169
1.82012 -0.104482 -4.52318 175 193 168
1.81909 -0.0949372 -4.52598 174 191 167
1.81732 -0.088274 -4.53833 171 187 164
1.81044 -0.0338853 -4.56468 178 189 172
1.80942 -0.0243402 -4.56748 179 190 173
1.80915 -0.0119132 -4.56074 178 187 172
1.80587 -0.0110137 -4.59218 179 189 173
1.80335 -0.00723235 -4.61407 183 195 176
1.80233 0.00231274 -4.61687 179 190 172
1.80131 0.0118578 -4.61967 181 192 174
1.79974 0.0462569 -4.60899 178 185 172
1.7917 0.0422921 -4.69096 177 190 169
1.77895 0.141524 -4.74086 186 193 180
1.76273 0.21392 -4.84525 191 195 185
1.76096 0.220584 -4.85759 183 187 176
1.75919 0.227247 -4.86994 182 186 175
1.76185 0.291364 -4.79523 190 195 187
1.76083 0.300909 -4.79803 198 202 194
1.75906 0.307572 -4.81038 196 200 193
1.75728 0.314236 -4.82273 194 199 192
1.75476 0.318017 -4.84462 188 192 186
1.75524 0.333326 -4.82833 202 204 198
1.75067 0.356197 -4.85582 201 200 193
1.7474 0.357097 -4.88726 197 197 189
1.74638 0.366642 -4.89007 177 174 167
1.74748 0.465158 -4.80466 203 209 204
1.73924 0.581682 -4.79729 197 205 200
1.73154 0.673351 -4.80341 201 209 204
1.73052 0.682896 -4.80621 203 210 206
1.73024 0.695323 -4.79947 203 210 206
1.72697 0.696223 -4.83091 204 212 207
1.72288 0.734403 -4.84211 206 214 210
1.71961 0.735303 -4.87355 202 211 207
1.70749 0.917742 -4.85435 211 220 216
1.67724 1.25957 -4.89231 210 217 220
1.67547 1.26623 -4.90466 217 225 227
1.65265 1.52881 -4.92976 203 210 212
1.65088 1.53548 -4.9421 202 210 211
1.64835 1.53926 -4.964 204 212 214
1.89776 -0.74612 -4.34606 107 106 95
1.89716 -0.532879 -4.1904 95 95 84
1.83917 -0.14946 -4.4692 176 191 171
1.83815 -0.139915 -4.472 177 192 172
1.83487 -0.139015 -4.50344 180 197 174
1.83385 -0.12947 -4.50624 177 194 172
1.83004 -0.103717 -4.52419 168 185 161
1.82751 -0.0999354 -4.54608 165 182 157
1.81961 -0.0360016 -4.57524 183 196 177
1.81709 -0.0322203 -4.59713 179 190 172
1.81606 -0.0226752 -4.59993 180 191 174
1.81279 -0.0217757 -4.63137 178 191 171
1.81252 -0.00934872 -4.62463 181 193 175
1.80564 0.04504 -4.65098 180 191 174
1.78989 0.132745 -4.73907 184 191 179
1.77797 0.194696 -4.80921 189 193 185
1.77619 0.201359 -4.82156 190 194 184
1.77367 0.205141 -4.84346 183 189 177
1.77115 0.208922 -4.86535 187 193 180
1.77013 0.218467 -4.86815 186 191 179
1.76911 0.228012 -4.87095 187 190 180
1.77102 0.289248 -4.80579 195 200 191
1.77 0.298793 -4.80859 192 196 188
1.76823 0.305456 -4.82093 187 192 184
1.76645 0.312119 -4.83328 188 193 186
1.76543 0.321664 -4.83608 192 197 191
1.76291 0.325446 -4.85798 191 196 190
1.76086 0.344536 -4.86358 203 205 198
1.75909 0.351199 -4.87593 204 205 197
1.75732 0.357862 -4.88827 206 206 199
1.7563 0.367407 -4.89108 184 181 174
1.75467 0.441969 -4.85061 186 191 184
1.75487 0.469705 -4.82757 199 204 200
1.75058 0.48015 -4.86181 199 206 201
1.75079 0.507885 -4.83877 198 205 199
1.74943 0.57002 -4.80505 197 205 200
1.74179 0.621527 -4.84095 197 204 199
1.73948 0.653044 -4.8398 198 206 200
1.74071 0.671235 -4.81397 202 210 205
1.74194 0.689426 -4.78813 203 211 206
1.73716 0.684561 -4.83866 204 211 207
1.73839 0.702752 -4.81282 205 213 209
1.7313 0.729405 -4.86221 206 214 210
1.72953 0.736068 -4.87456 204 212 208
1.71564 0.925171 -4.86771 211 220 216
1.68558 1.14651 -4.99501 201 211 200
1.68416 1.2488 -4.93151 215 221 223
1.68614 1.26988 -4.89612 211 218 221
1.68437 1.27654 -4.90847 216 224 226
1.68184 1.28032 -4.93036 218 225 228
1.68307 1.29851 -4.90453 214 222 224
1.74781 1.72231 -3.94812 23 18 19
1.74453 1.72321 -3.97956 25 18 18
1.65725 1.54957 -4.96781 198 205 206
1.85113 -0.167785 -4.46461 171 185 165
1.84834 -0.151576 -4.47976 178 194 174
1.83948 -0.11826 -4.54149 170 187 162
1.8392 -0.105833 -4.53475 170 188 162
1.82905 -0.050545 -4.59254 180 194 174
1.82803 -0.0409999 -4.59534 181 195 175
1.82626 -0.0343366 -4.60769 186 197 179
1.82244 -0.00858322 -4.62564 182 194 176
1.81862 0.0171702 -4.64359 180 191 174
1.8146 0.0151878 -4.68458 176 189 169
1.80186 0.11442 -4.73448 188 197 182
1.78741 0.180153 -4.82652 191 197 186
1.78714 0.19258 -4.81977 183 186 179
1.78461 0.196361 -4.84167 186 190 180
1.78209 0.200143 -4.86356 189 194 182
1.78107 0.209688 -4.86636 191 195 185
1.7793 0.216351 -4.87871 187 191 180
1.77677 0.220132 -4.9006 183 189 176
1.78196 0.280468 -4.804 187 192 185
1.77917 0.296676 -4.81914 187 192 184
1.77739 0.30334 -4.83149 188 193 185
1.77562 0.310003 -4.84384 194 199 191
1.7746 0.319548 -4.84664 195 200 194
1.76826 0.349083 -4.88648 202 203 196
1.76724 0.358628 -4.88929 194 194 187
1.76547 0.365291 -4.90163 195 193 186
1.76125 0.483797 -4.85327 199 204 200
1.75635 0.559258 -4.84424 195 202 197
1.75553 0.596539 -4.82401 202 208 204
1.75451 0.606084 -4.82681 201 208 203
1.75096 0.619411 -4.8515 200 207 202
1.74913 0.666237 -4.83407 200 208 203
1.7511 0.687309 -4.79869 202 209 205
1.74783 0.688209 -4.83013 204 211 207
1.74606 0.694872 -4.84247 204 211 206
1.74272 0.735934 -4.84413 206 214 211
1.7387 0.733952 -4.88512 203 211 207
1.7154 0.981225 -4.92651 201 214 202
1.69531 1.26776 -4.90668 207 214 216
1.69429 1.27731 -4.90948 210 217 220
1.68951 1.27244 -4.96001 211 218 220
1.68849 1.28199 -4.96281 215 222 224
1.68263 1.32683 -4.98637 214 223 224
1.74416 1.71137 -4.09119 32 24 25
1.66444 1.52638 -5.01375 211 218 221
1.91398 -0.839324 -4.45537 109 107 103
1.8603 -0.169901 -4.47516 175 191 170
1.85192 -0.121276 -4.52061 168 183 161
1.84101 -0.0688696 -4.58795 174 189 167
1.83924 -0.0622064 -4.6003 180 194 174
1.83822 -0.0526613 -4.6031 180 194 174
1.8372 -0.0431162 -4.6059 184 198 178
1.83188 -0.0231265 -4.64294 181 194 175
1.83161 -0.0106996 -4.6362 184 195 178
1.82909 -0.00691823 -4.65809 181 194 174
1.82881 0.00550874 -4.65135 180 192 174
1.8143 0.111404 -4.7136 189 197 184
1.81178 0.115186 -4.73549 187 195 182
1.80925 0.118967 -4.75739 191 200 185
1.79835 0.171373 -4.82473 190 197 184
1.79733 0.180918 -4.82753 189 194 184
1.7948 0.1847 -4.84942 189 196 182
1.79453 0.197127 -4.84268 189 192 184
1.79126 0.198026 -4.87412 186 192 179
1.78949 0.204689 -4.88646 190 197 183
1.78847 0.214235 -4.88926 187 191 180
1.78669 0.220898 -4.90161 185 189 177
1.7929 0.271689 -4.80221 193 197 190
1.79113 0.278352 -4.81455 198 203 195
1.78909 0.297442 -4.82015 193 198 190
1.78098 0.33364 -4.87235 199 204 197
1.7792 0.340303 -4.88469 202 207 199
1.77566 0.35363 -4.90939 196 198 190
1.77539 0.366057 -4.90264 195 193 186
1.77601 0.449264 -4.83353 197 201 196
1.77042 0.481681 -4.86383 200 205 200
1.76865 0.488344 -4.87618 198 203 198
1.76047 0.564705 -4.89859 198 205 200
1.7647 0.594423 -4.83457 203 209 205
1.7619 0.610631 -4.84971 201 208 204
1.7583 0.66412 -4.84463 200 206 202
1.75802 0.676547 -4.83788 201 207 203
1.75625 0.68321 -4.85023 202 208 204
1.74862 0.734717 -4.88613 207 214 210
1.72457 0.979108 -4.93707 199 212 200
1.70168 1.28185 -4.93238 213 220 222
1.70291 1.30004 -4.90655 209 217 220
1.69664 1.28942 -4.97617 213 220 222
1.69534 1.31139 -4.97223 212 219 221
1.69357 1.31805 -4.98458 213 221 222
1.75605 1.73321 -4.05681 26 19 18
1.60145 2.10921 -5.2895 33 22 22
1.92186 -0.671244 -4.3496 88 87 76
1.92678 -0.598481 -4.24625 105 104 94
1.86947 -0.172017 -4.48572 178 194 173
1.85373 -0.0843125 -4.57381 173 187 166
1.85195 -0.0776492 -4.58616 178 193 171
1.85018 -0.070986 -4.59851 180 194 173
1.84841 -0.0643228 -4.61085 178 192 171
1.83901 -0.00615273 -4.6591 183 195 178
1.82524 0.102625 -4.71181 189 197 184
1.82347 0.109288 -4.72416 189 197 184
1.82095 0.113069 -4.74605 184 192 179
1.81842 0.116851 -4.76794 190 199 183
1.80827 0.172139 -4.82574 180 186 175
1.8065 0.178802 -4.83808 181 186 177
1.80472 0.185465 -4.85043 190 196 184
1.8022 0.189247 -4.87233 190 198 183
1.80118 0.198792 -4.87513 187 192 180
1.80091 0.211219 -4.86838 178 181 173
1.80309 0.260027 -4.80996 193 197 190
1.80207 0.269572 -4.81276 194 198 191
1.8003 0.276235 -4.82511 189 193 186
1.79853 0.282899 -4.83746 190 194 187
1.79675 0.289562 -4.8498 193 199 190
1.79621 0.314416 -4.83631 197 202 195
1.79117 0.321978 -4.8801 195 201 194
1.79014 0.331524 -4.8829 194 200 193
1.78483 0.351513 -4.91995 189 192 185
1.78681 0.372586 -4.88456 189 187 180
1.78518 0.447148 -4.84409 201 203 198
1.77959 0.479564 -4.87439 200 206 201
1.77781 0.486227 -4.88674 198 203 198
1.77462 0.595188 -4.83558 201 207 203
1.77285 0.601852 -4.84792 201 207 203
1.77074 0.661104 -4.82374 202 207 204
1.76896 0.667768 -4.83609 199 205 201
1.76502 0.773847 -4.79448 201 208 208
1.76222 0.790055 -4.80963 204 212 212
1.74287 0.931249 -4.89263 206 215 211
1.73878 0.969429 -4.90384 203 215 206
1.70908 1.2864 -4.95529 211 218 220
1.70956 1.30171 -4.939 210 217 219
1.70328 1.29108 -5.00862 212 218 219
1.71024 1.34475 -4.89967 213 222 226
1.70922 1.3543 -4.90247 217 224 229
1.76372 1.72533 -4.08646 26 18 18
1.7627 1.73487 -4.08926 26 19 17
1.76243 1.7473 -4.08252 25 18 16
1.76114 1.76927 -4.07858 24 17 15
1.58124 2.22325 -5.50042 37 25 27
1.58022 2.2328 -5.50322 35 23 24
1.9352 -0.60348 -4.26636 100 99 89
1.9037 -0.576294 -4.55492 60 62 47
1.89941 -0.565849 -4.58916 55 56 42
1.87864 -0.174134 -4.49628 179 194 175
1.86392 -0.0959739 -4.58157 178 193 170
1.86215 -0.0893107 -4.59391 178 194 170
1.86037 -0.0826475 -4.60626 179 194 172
1.85274 -0.0311406 -4.64216 182 196 176
1.85097 -0.0244774 -4.65451 184 197 179
1.84742 -0.011151 -4.6792 180 192 174
1.83264 0.107172 -4.73471 192 200 187
1.82861 0.105189 -4.7757 190 199 183
1.81948 0.150932 -4.83069 189 198 183
1.81921 0.163359 -4.82395 179 185 174
1.81669 0.167141 -4.84584 187 194 182
1.81567 0.176686 -4.84864 185 190 180
1.81314 0.180467 -4.87053 187 194 181
1.81212 0.190012 -4.87334 181 186 175
1.8096 0.193793 -4.89523 189 195 181
1.81506 0.241702 -4.80537 183 186 180
1.81403 0.251247 -4.80817 189 193 186
1.81226 0.257911 -4.82052 189 192 185
1.81124 0.267456 -4.82332 188 192 185
1.80872 0.271237 -4.84521 188 191 184
1.8077 0.280782 -4.84801 192 196 188
1.80667 0.290327 -4.85082 193 198 190
1.80565 0.299872 -4.85362 198 203 195
1.80034 0.319862 -4.89066 194 200 193
1.79931 0.329407 -4.89346 195 200 194
1.79754 0.33607 -4.90581 198 201 195
1.7908 0.458358 -4.87934 201 207 201
1.78535 0.558673 -4.85682 199 206 201
1.78066 0.66187 -4.82475 203 207 204
1.77234 0.670332 -4.89998 190 195 190
1.76927 0.698967 -4.90839 206 211 207
1.77419 0.77173 -4.80503 200 207 206
1.72125 1.29581 -4.92766 203 209 214
1.71648 1.29095 -4.97819 209 215 218
1.72071 1.32066 -4.91417 209 216 221
1.78196 1.71763 -4.01225 22 17 17
1.77944 1.72141 -4.03414 22 18 17
1.77241 1.7079 -4.11331 25 19 18
1.7701 1.73942 -4.11217 26 18 17
1.76908 1.74896 -4.11497 26 18 17
1.77031 1.76715 -4.08913 23 17 16
1.75994 1.79471 -4.16996 25 18 16
1.9111 -0.571747 -4.57782 66 67 53
1.89373 -0.261256 -4.51306 168 179 160
1.88869 -0.253694 -4.55685 170 184 163
1.88781 -0.17625 -4.50683 174 189 169
1.88324 -0.153378 -4.53433 177 193 169
1.87663 -0.111417 -4.56743 172 188 164
1.87411 -0.107635 -4.58932 179 196 172
1.87309 -0.0980903 -4.59212 175 191 168
1.87131 -0.0914271 -4.60447 177 193 169
1.86498 -0.0618923 -4.64431 181 195 175
1.8647 -0.0494653 -4.63757 187 200 181
1.86116 -0.0361389 -4.66226 183 196 177
1.85407 -0.00948597 -4.71165 176 189 171
1.84385 0.085965 -4.73967 189 197 183
1.8294 0.151698 -4.8317 186 193 180
1.82688 0.155479 -4.8536 183 192 178
1.82436 0.15926 -4.87549 185 194 179
1.82408 0.171687 -4.86874 187 195 181
1.82156 0.175469 -4.89064 183 192 177
1.81979 0.182132 -4.90299 184 193 177
1.8245 0.227159 -4.82267 178 180 174
1.82348 0.236704 -4.82547 190 192 186
1.8232 0.249131 -4.81873 189 193 187
1.82143 0.255794 -4.83107 192 195 189
1.81966 0.262458 -4.84342 193 195 189
1.81939 0.274885 -4.83668 195 199 193
1.81762 0.281548 -4.84902 194 198 192
1.81584 0.288211 -4.86137 199 204 196
1.81332 0.291992 -4.88327 196 201 193
1.81128 0.311083 -4.88887 198 204 197
1.811 0.323509 -4.88212 193 199 192
1.80773 0.324409 -4.91356 194 199 194
1.80222 0.464887 -4.86126 199 202 197
1.8012 0.474432 -4.86406 195 199 195
1.79548 0.587174 -4.8348 200 206 202
1.79296 0.590956 -4.85669 199 206 201
1.79139 0.625355 -4.846 201 205 202
1.78069 0.705497 -4.8903 207 212 208
1.78111 0.760968 -4.84423 202 209 207
1.7531 0.963214 -4.96594 202 213 204
1.74636 1.0855 -4.93947 199 210 203
1.74329 1.11414 -4.94787 206 214 211
1.73825 1.1217 -4.99166 200 212 202
1.73647 1.12836 -5.00401 199 211 201
1.79317 1.69642 -4.0172 22 17 19
1.7914 1.70309 -4.02955 22 18 19
1.78936 1.72218 -4.03515 21 17 17
1.78683 1.72596 -4.05704 21 17 17
1.77845 1.77458 -4.10249 20 16 15
1.77668 1.78125 -4.11484 19 15 14
1.78057 1.86355 -4.01429 23 17 15
1.71152 2.08326 -4.52562 44 25 20
1.94815 -0.54756 -4.29473 78 76 63
1.94713 -0.538015 -4.29753 72 69 56
1.89888 -0.265355 -4.56461 175 188 167
1.88682 -0.123078 -4.57518 173 189 165
1.88328 -0.109752 -4.59988 178 194 170
1.87592 -0.0706719 -4.64252 180 195 174
1.8706 -0.0506822 -4.67957 178 193 172
1.85834 0.0638589 -4.71318 182 191 177
1.85479 0.0771854 -4.73788 188 196 182
1.85377 0.0867305 -4.74068 187 195 182
1.852 0.0933937 -4.75302 190 199 185
1.83884 0.137154 -4.849 189 199 183
1.83782 0.1467 -4.8518 187 195 181
1.8368 0.156245 -4.85461 189 196 184
1.83428 0.160026 -4.8765 187 196 182
1.83325 0.169571 -4.8793 186 194 180
1.83298 0.181998 -4.87256 176 183 171
1.83544 0.218379 -4.82088 185 187 181
1.83442 0.227925 -4.82368 189 192 185
1.83339 0.23747 -4.82648 196 199 193
1.83312 0.249897 -4.81974 191 195 188
1.82985 0.250796 -4.85118 194 196 190
1.82958 0.263223 -4.84443 189 192 186
1.82678 0.279431 -4.85958 198 202 195
1.81214 0.465652 -4.86227 196 198 193
1.81187 0.478079 -4.85553 199 202 199
1.80396 0.542013 -4.88468 201 207 201
1.80213 0.588839 -4.86725 200 206 202
1.78795 0.642145 -4.96603 192 198 193
1.78898 0.780824 -4.85084 202 210 209
1.75144 1.12157 -4.96123 202 210 207
1.74537 1.13867 -5.00782 200 210 203
1.80712 1.69917 -3.97722 20 16 17
1.80657 1.72402 -3.96373 18 15 15
1.79252 1.697 -4.12208 21 18 18
1.78394 1.71789 -4.19056 22 18 16
1.78864 1.76292 -4.11025 16 14 13
1.72144 2.08402 -4.52663 44 25 20
1.9606 -0.550576 -4.27385 75 71 61
1.9088 -0.26459 -4.56562 173 186 165
1.89599 -0.125195 -4.58574 176 192 168
1.89347 -0.121413 -4.60764 175 192 167
1.88788 -0.0889966 -4.63793 178 193 171
1.88686 -0.0794515 -4.64073 180 194 173
1.86294 0.0846141 -4.75123 187 196 183
1.84978 0.128375 -4.84721 192 201 186
1.84801 0.135038 -4.85956 187 197 180
1.84699 0.144583 -4.86236 192 199 185
1.84447 0.148365 -4.88426 188 198 182
1.84344 0.15791 -4.88706 186 194 180
1.84242 0.167455 -4.88986 175 184 169
1.84536 0.219145 -4.82189 188 191 184
1.84359 0.225808 -4.83424 193 195 189
1.84256 0.235353 -4.83704 185 188 182
1.84079 0.242016 -4.84939 193 195 189
1.83902 0.24868 -4.86173 187 189 183
1.83316 0.293523 -4.88529 195 199 191
1.82723 0.37853 -4.87906 193 195 188
1.82131 0.463536 -4.87283 195 197 192
1.81954 0.470199 -4.88518 195 198 193
1.81776 0.476863 -4.89752 197 201 196
1.81538 0.548542 -4.8666 200 206 201
1.81211 0.549442 -4.89804 201 207 202
1.81307 0.58006 -4.86546 203 209 206
1.81129 0.586723 -4.8778 200 206 202
1.80748 0.612476 -4.89575 200 205 201
1.80646 0.622021 -4.89855 204 209 205
1.79862 0.645792 -4.95749 195 201 195
1.79536 0.794916 -4.87655 208 215 214
1.87117 1.67888 -3.46285 28 21 19
1.81001 1.68643 -4.05741 18 15 16
1.80695 1.71506 -4.06581 16 13 13
