ply
format ascii 1.0
element face 0
property list uchar int vertex_indices
element vertex 1230
property float x
property float y
property float z
property uchar diffuse_red
property uchar diffuse_green
property uchar diffuse_blue
end_header
-0.900299 0.518254 -3.73173 81 175 198
-0.901607 0.532171 -3.72959 83 177 199
-0.902129 0.552128 -3.71952 90 184 202
-0.903438 0.566045 -3.71737 93 183 200
-0.904746 0.579963 -3.71523 99 185 203
-0.906055 0.593881 -3.71309 101 185 202
-0.910508 0.583644 -3.74268 103 182 197
-0.911816 0.597562 -3.74054 110 182 196
-0.9181 0.6212 -3.75791 149 188 195
-0.96836 0.954191 -3.80471 173 171 164
-1.03513 1.16037 -4.01809 180 180 173
-1.06418 1.36862 -4.03507 169 167 163
-1.04477 1.78137 -3.67043 40 21 15
-1.08248 1.85125 -3.82075 41 20 15
-0.681415 -1.08585 -3.6795 22 31 21
-0.68351 -1.07798 -3.68529 17 30 17
-0.684818 -1.06406 -3.68315 19 34 21
-0.69528 -0.88077 -3.61993 24 21 16
-0.700519 -0.897045 -3.65745 22 33 22
-0.698683 -0.858974 -3.62358 25 22 16
-0.702086 -0.837177 -3.62723 26 25 20
-0.728783 -0.610812 -3.62041 26 28 24
-0.730878 -0.602933 -3.6262 26 27 23
-0.732186 -0.589016 -3.62406 26 27 23
-0.734281 -0.581136 -3.62985 22 25 20
-0.743973 -0.607647 -3.69696 25 28 23
-0.745282 -0.59373 -3.69481 27 30 26
-0.747898 -0.565894 -3.69053 26 30 26
-0.748679 -0.499987 -3.65238 28 33 27
-0.750774 -0.492108 -3.65817 28 33 27
-0.756008 -0.436437 -3.6496 32 37 31
-0.759405 -0.342695 -3.60717 35 43 32
-0.7615 -0.334816 -3.61296 33 42 31
-0.763594 -0.326937 -3.61875 33 45 33
-0.764117 -0.306981 -3.60867 46 59 46
-0.76935 -0.25131 -3.60011 39 55 40
-0.771445 -0.243431 -3.6059 36 56 40
-0.772753 -0.229513 -3.60376 39 60 43
-0.774062 -0.215595 -3.60162 52 75 56
-0.77537 -0.201678 -3.59947 63 85 67
-0.777201 -0.167804 -3.58726 56 74 57
-0.779296 -0.159924 -3.59305 54 71 55
-0.779818 -0.139968 -3.58298 58 71 56
-0.782699 -0.138128 -3.5967 56 71 56
-0.784007 -0.12421 -3.59456 59 72 58
-0.789241 -0.0685392 -3.58599 64 76 63
-0.810709 0.0302089 -3.63382 79 83 79
-0.814376 0.0260111 -3.65548 84 91 85
-0.837159 0.0667313 -3.74725 162 110 136
-0.848935 0.19199 -3.72798 75 169 197
-0.851029 0.19987 -3.73377 67 155 184
-0.853124 0.207749 -3.73956 65 150 178
-0.855477 0.261579 -3.71727 67 171 195
-0.858358 0.26342 -3.731 72 175 196
-0.860452 0.271299 -3.73679 76 176 195
-0.860188 0.297293 -3.71878 76 176 199
-0.861497 0.311211 -3.71664 75 174 196
-0.862805 0.325129 -3.7145 76 176 197
-0.8649 0.333008 -3.72029 72 174 197
-0.866208 0.346926 -3.71815 69 172 196
-0.868303 0.354805 -3.72394 71 172 197
-0.868825 0.374761 -3.71386 65 170 196
-0.871706 0.376602 -3.72759 65 170 197
-0.873801 0.384481 -3.73338 67 172 199
-0.874323 0.404437 -3.7233 63 169 198
-0.875631 0.418355 -3.72116 67 169 200
-0.878512 0.420195 -3.73488 71 173 200
-0.879034 0.440152 -3.72481 69 170 197
-0.879557 0.460108 -3.71474 76 173 196
-0.882437 0.461949 -3.72846 76 174 196
-0.884532 0.469828 -3.73425 83 177 196
-0.886627 0.477707 -3.74004 92 184 198
-0.886363 0.503702 -3.72203 89 181 197
-0.888457 0.511581 -3.72783 88 179 196
-0.889766 0.525498 -3.72568 88 176 194
-0.892647 0.527339 -3.73941 98 177 192
-0.895527 0.52918 -3.75313 113 179 191
-0.897622 0.537059 -3.75892 119 181 189
-0.896572 0.569092 -3.73298 103 179 191
-0.89788 0.58301 -3.73084 112 181 193
-0.899189 0.596928 -3.7287 119 182 193
-0.901284 0.604807 -3.73449 124 181 192
-0.90495 0.600609 -3.75614 137 177 186
-0.906259 0.614527 -3.754 142 175 183
-0.908354 0.622406 -3.75979 154 180 187
-0.910448 0.630285 -3.76558 177 195 202
-0.621651 -1.15585 -3.46824 53 60 57
-0.652559 -1.20151 -3.65735 64 67 58
-0.67036 -1.09857 -3.68352 26 39 27
-0.672191 -1.06469 -3.67131 20 36 23
-0.673499 -1.05077 -3.66917 16 32 19
-0.683703 -0.913438 -3.63403 18 26 16
-0.683439 -0.887443 -3.61602 20 21 15
-0.684748 -0.873526 -3.61388 21 23 18
-0.689201 -0.883762 -3.64347 21 33 21
-0.688151 -0.851729 -3.61753 22 22 16
-0.691554 -0.829932 -3.62118 27 29 23
-0.693648 -0.822053 -3.62697 28 32 26
-0.695743 -0.814174 -3.63276 27 32 25
-0.728201 -0.584128 -3.65339 24 28 23
-0.730296 -0.576249 -3.65918 26 30 25
-0.731604 -0.562331 -3.65704 27 32 26
-0.732126 -0.542375 -3.64696 27 32 26
-0.73631 -0.454671 -3.61246 29 33 27
-0.746778 -0.34333 -3.59533 36 44 34
-0.748872 -0.33545 -3.60112 35 44 33
-0.750967 -0.327571 -3.60691 35 47 35
-0.752275 -0.313653 -3.60477 40 54 40
-0.75437 -0.305774 -3.61056 47 63 49
-0.758037 -0.309972 -3.63221 48 66 51
-0.756723 -0.251944 -3.58827 43 64 46
-0.76039 -0.256142 -3.60992 47 71 52
-0.761698 -0.242224 -3.60778 44 70 50
-0.763793 -0.234345 -3.61357 46 72 52
-0.765102 -0.220427 -3.61143 56 83 62
-0.764051 -0.188394 -3.58549 64 88 68
-0.773211 -0.0909706 -3.5705 70 78 65
-0.798082 0.0295744 -3.62198 68 77 69
-0.800963 0.0314151 -3.63571 77 83 79
-0.80463 0.0272173 -3.65736 78 86 81
-0.828198 0.0618991 -3.75707 179 125 149
-0.839188 0.193197 -3.72986 70 169 195
-0.840497 0.207114 -3.72772 51 144 169
-0.845208 0.242829 -3.72923 82 175 196
-0.846517 0.256747 -3.72709 84 180 197
-0.849397 0.258587 -3.74081 89 180 193
-0.851492 0.266467 -3.7466 96 182 195
-0.8528 0.280384 -3.74446 100 183 196
-0.854109 0.294302 -3.74232 105 184 200
-0.856203 0.302181 -3.74811 105 181 195
-0.855153 0.334214 -3.72217 91 181 198
-0.856462 0.348132 -3.72003 88 181 201
-0.860915 0.337896 -3.74962 106 181 198
-0.859865 0.369929 -3.72368 85 178 197
-0.861173 0.383846 -3.72154 84 178 197
-0.865626 0.37361 -3.75112 101 180 198
-0.86379 0.411682 -3.71725 80 176 197
-0.865885 0.419561 -3.72305 81 175 196
-0.867193 0.433479 -3.7209 83 176 197
-0.869288 0.441358 -3.72669 88 178 194
-0.872955 0.43716 -3.74835 103 182 189
-0.873477 0.457116 -3.73828 95 181 191
-0.873999 0.477072 -3.7282 104 187 193
-0.875308 0.49099 -3.72606 109 188 193
-0.879761 0.480754 -3.75565 121 194 192
-0.881069 0.494672 -3.75351 119 189 188
-0.883164 0.502551 -3.7593 131 190 185
-0.884472 0.516468 -3.75715 132 186 185
-0.883422 0.548502 -3.73122 119 175 185
-0.885517 0.556381 -3.73701 127 177 185
-0.886039 0.576337 -3.72693 132 176 187
-0.888134 0.584216 -3.73272 133 176 186
-0.889442 0.598134 -3.73058 138 177 187
-0.890751 0.612051 -3.72844 146 176 184
-0.892845 0.619931 -3.73423 152 178 187
-0.950181 0.898576 -3.85242 215 217 219
-1.03314 1.79535 -3.70743 48 26 19
-1.03863 1.82502 -3.71687 46 25 19
-1.03916 1.84498 -3.7068 46 25 18
-1.07241 1.92509 -3.82753 38 20 15
-1.07451 1.93297 -3.83332 37 20 15
-1.09126 1.99601 -3.87965 37 19 15
-0.640718 -1.20818 -3.65344 72 74 66
-0.645693 -1.19846 -3.67295 72 76 66
-0.650135 -1.06481 -3.61037 15 20 15
-0.660872 -1.05141 -3.65733 18 36 22
-0.66218 -1.03749 -3.65519 22 40 26
-0.660344 -0.999419 -3.62132 16 28 19
-0.662961 -0.971584 -3.61704 22 31 23
-0.663483 -0.951628 -3.60696 25 30 24
-0.666886 -0.929831 -3.61061 21 30 21
-0.67736 -0.890435 -3.63956 18 39 22
-0.675523 -0.852363 -3.60569 20 30 22
-0.677618 -0.844484 -3.61148 19 26 18
-0.684424 -0.80089 -3.61878 21 30 20
-0.686519 -0.793011 -3.62457 22 32 22
-0.688613 -0.785132 -3.63036 23 35 23
-0.689922 -0.771214 -3.62822 20 27 17
-0.706415 -0.682186 -3.65654 24 28 24
-0.709554 -0.634395 -3.64218 23 29 24
-0.711648 -0.626515 -3.64797 24 30 25
-0.711385 -0.600521 -3.62997 25 31 26
-0.712693 -0.586603 -3.62783 25 30 25
-0.71636 -0.590801 -3.64948 25 29 25
-0.714524 -0.552729 -3.61561 29 33 28
-0.719499 -0.543009 -3.63513 27 32 26
-0.718971 -0.49102 -3.59911 30 34 29
-0.72028 -0.477102 -3.59697 32 33 29
-0.722374 -0.469223 -3.60276 30 32 27
-0.726564 -0.453465 -3.61434 34 37 31
-0.727872 -0.439547 -3.6122 33 37 32
-0.729181 -0.425629 -3.61006 34 39 32
-0.731011 -0.391756 -3.59785 43 51 42
-0.73834 -0.328206 -3.59507 41 50 39
-0.748285 -0.23682 -3.58801 50 74 54
-0.751688 -0.215023 -3.59166 72 100 78
-0.752997 -0.201106 -3.58952 79 107 85
-0.752733 -0.175111 -3.57151 68 90 70
-0.758753 -0.125479 -3.57088 69 84 68
-0.769753 -0.138072 -3.63584 57 72 57
-0.767131 -0.0939621 -3.59404 83 97 82
-0.772106 -0.0842422 -3.61356 68 85 70
-0.775246 -0.0364507 -3.5992 65 80 66
-0.77734 -0.0285715 -3.60499 64 78 64
-0.79043 0.0386598 -3.62966 68 73 69
-0.793833 0.0604567 -3.63331 165 158 165
-0.818452 0.0631053 -3.75895 183 129 154
-0.825516 0.15265 -3.73817 65 170 198
-0.826825 0.166568 -3.73603 69 176 202
-0.828919 0.174447 -3.74182 75 174 199
-0.829442 0.194403 -3.73175 81 172 195
-0.832322 0.196244 -3.74547 86 170 192
-0.833631 0.210161 -3.74333 66 146 167
-0.834939 0.224079 -3.74119 72 145 166
-0.834675 0.250074 -3.72318 98 175 191
-0.837556 0.251914 -3.73691 105 179 194
-0.839651 0.259794 -3.7427 108 181 193
-0.840173 0.27975 -3.73262 113 183 194
-0.841482 0.293667 -3.73048 113 182 193
-0.843576 0.301547 -3.73627 115 181 191
-0.844885 0.315464 -3.73413 114 182 192
-0.847765 0.317305 -3.74785 124 179 188
-0.847501 0.3433 -3.72985 111 181 193
-0.849596 0.351179 -3.73564 113 178 191
-0.850905 0.365097 -3.7335 111 179 191
-0.852999 0.372976 -3.73929 115 180 188
-0.85588 0.374816 -3.75301 120 177 185
-0.856402 0.394773 -3.74294 115 182 188
-0.860069 0.390575 -3.76459 143 186 185
-0.859019 0.422608 -3.73865 108 185 189
-0.863472 0.412372 -3.76824 147 192 184
-0.864781 0.426289 -3.7661 142 192 186
-0.863731 0.458323 -3.74016 124 193 186
-0.868184 0.448086 -3.76975 154 201 186
-0.866348 0.486158 -3.73588 127 189 181
-0.870801 0.475922 -3.76546 149 200 183
-0.872895 0.483801 -3.77125 161 202 183
-0.870273 0.527911 -3.72945 141 179 182
-0.872367 0.53579 -3.73524 142 176 180
-0.873676 0.549708 -3.7331 145 170 175
-0.876557 0.551549 -3.74682 146 173 177
-0.877865 0.565466 -3.74468 153 167 174
-0.87996 0.573345 -3.75047 159 164 171
-0.879696 0.59934 -3.73247 155 164 173
-0.882577 0.601181 -3.74619 163 159 168
-0.883885 0.615098 -3.74405 160 155 164
-0.88598 0.622978 -3.74984 163 158 166
-0.88886 0.624818 -3.76356 173 156 167
-0.918707 0.755083 -3.83456 219 225 231
-0.922374 0.750885 -3.85621 218 225 230
-0.941215 0.965689 -3.81616 175 174 167
-1.02993 1.86614 -3.69861 39 21 14
-1.03491 1.87586 -3.71812 39 21 15
-0.60373 -1.16552 -3.48788 52 60 56
-0.632543 -1.21906 -3.67119 68 69 62
-0.631482 -1.04313 -3.55308 30 33 30
-0.643005 -1.03577 -3.60797 22 34 27
-0.644314 -1.02185 -3.60583 21 34 28
-0.649553 -1.03813 -3.64335 25 45 29
-0.647717 -1.00005 -3.60948 18 34 23
-0.649025 -0.986136 -3.60734 16 30 19
-0.650334 -0.972218 -3.6052 18 33 20
-0.652428 -0.964339 -3.61099 20 34 22
-0.652951 -0.944383 -3.60091 19 32 21
-0.661588 -0.866915 -3.596 17 35 21
-0.662896 -0.852998 -3.59385 18 35 22
-0.665777 -0.851157 -3.60758 17 39 24
-0.667085 -0.837239 -3.60544 20 38 25
-0.675986 -0.785766 -3.61852 16 34 18
-0.680175 -0.770008 -3.63011 15 29 16
-0.681484 -0.75609 -3.62796 21 30 19
-0.701116 -0.619271 -3.64193 25 30 27
-0.700066 -0.587238 -3.61599 28 31 27
-0.701896 -0.553364 -3.60377 26 30 24
-0.704777 -0.551523 -3.6175 30 33 28
-0.706086 -0.537605 -3.61535 30 33 28
-0.706344 -0.491654 -3.58728 32 37 32
-0.710533 -0.475896 -3.59886 36 38 33
-0.71315 -0.448061 -3.59457 35 36 31
-0.714459 -0.434143 -3.59243 38 40 35
-0.743261 -0.343791 -3.68357 44 58 46
-0.74745 -0.328032 -3.69516 51 72 56
-0.7464 -0.295999 -3.66922 54 77 61
-0.758957 -0.104833 -3.61179 66 81 66
-0.760265 -0.0909152 -3.60965 63 79 65
-0.760001 -0.0649205 -3.59164 61 77 62
-0.763668 -0.0691183 -3.6133 58 76 61
-0.78147 0.0338276 -3.63948 65 76 67
-0.783564 0.0417068 -3.64527 68 72 68
-0.808705 0.0643116 -3.76084 179 137 159
-0.812367 0.132059 -3.73641 88 172 196
-0.813675 0.145977 -3.73427 86 171 199
-0.816556 0.147818 -3.74799 89 170 198
-0.818651 0.155697 -3.75378 93 172 198
-0.820745 0.163576 -3.75957 110 172 198
-0.820481 0.189571 -3.74156 103 176 196
-0.823362 0.191411 -3.75529 112 168 188
-0.826243 0.193252 -3.76901 125 165 186
-0.829124 0.195093 -3.78273 149 162 184
-0.825715 0.245241 -3.733 126 173 191
-0.827024 0.259159 -3.73086 137 183 198
-0.829118 0.267038 -3.73665 145 183 197
-0.831213 0.274917 -3.74244 146 182 194
-0.831735 0.294874 -3.73236 148 183 193
-0.833043 0.308791 -3.73022 140 176 183
-0.834352 0.322709 -3.72808 138 176 184
-0.837233 0.32455 -3.7418 151 174 183
-0.839327 0.332429 -3.74759 150 173 182
-0.840636 0.346347 -3.74545 149 171 180
-0.841158 0.366303 -3.73538 144 175 181
-0.843253 0.374182 -3.74117 144 180 185
-0.847706 0.363946 -3.77076 162 161 169
-0.847442 0.38994 -3.75275 146 181 182
-0.84875 0.403858 -3.75061 148 189 183
-0.852417 0.39966 -3.77226 169 183 172
-0.851367 0.431693 -3.74633 148 198 185
-0.85582 0.421457 -3.77591 171 192 177
-0.857129 0.435375 -3.77377 174 199 181
-0.858437 0.449292 -3.77163 167 200 177
-0.862626 0.465051 -3.78321 179 202 175
-0.863935 0.478969 -3.78107 182 203 175
-0.862099 0.51704 -3.7472 172 187 176
-0.863407 0.530958 -3.74506 170 175 170
-0.864716 0.544876 -3.74292 170 164 167
-0.866024 0.558793 -3.74078 164 157 164
-0.868119 0.566672 -3.74657 171 156 164
-0.869427 0.58059 -3.74443 179 149 162
-0.870736 0.594508 -3.74228 181 147 161
-0.872044 0.608425 -3.74014 181 140 155
-0.874139 0.616305 -3.74593 176 144 156
-0.876233 0.624184 -3.75172 178 148 160
-0.878328 0.632063 -3.75751 186 159 171
-0.933574 0.830884 -3.916 216 224 228
-1.02018 1.86735 -3.7005 39 21 15
-0.582197 -1.14568 -3.41686 38 48 43
-0.615457 -1.13751 -3.58368 49 46 42
-0.616766 -1.12359 -3.58154 50 47 44
-0.61493 -1.08552 -3.54767 44 42 38
-0.621214 -1.06188 -3.56504 26 27 24
-0.623308 -1.054 -3.57083 28 29 26
-0.632473 -1.02852 -3.60192 17 34 24
-0.633781 -1.01461 -3.59978 21 41 30
-0.63509 -1.00069 -3.59764 23 42 31
-0.637184 -0.992809 -3.60343 18 41 24
-0.649224 -0.893545 -3.60216 25 56 35
-0.650533 -0.879627 -3.60002 28 59 38
-0.651055 -0.859671 -3.58995 37 66 44
-0.653149 -0.851792 -3.59574 36 66 45
-0.670951 -0.748846 -3.62192 24 37 24
-0.682727 -0.623587 -3.60264 24 31 25
-0.688747 -0.573954 -3.60201 27 30 25
-0.693981 -0.518284 -3.59344 33 36 30
-0.727753 -0.346266 -3.65801 46 59 47
-0.725131 -0.302156 -3.61621 53 74 57
-0.728797 -0.306353 -3.63787 52 73 57
-0.730106 -0.292436 -3.63572 56 80 62
-0.732987 -0.290595 -3.64945 57 83 65
-0.774604 0.0368745 -3.65508 65 72 65
-0.802098 0.113309 -3.74837 116 164 178
-0.80262 0.133266 -3.73829 121 176 200
-0.804715 0.141145 -3.74408 122 173 201
-0.806809 0.149024 -3.74987 121 166 195
-0.808118 0.162942 -3.74773 115 168 194
-0.809426 0.176859 -3.74559 131 171 194
-0.810735 0.190777 -3.74345 140 170 191
-0.812043 0.204695 -3.74131 139 168 188
-0.813352 0.218612 -3.73917 148 168 189
-0.817805 0.208376 -3.76875 151 152 175
-0.818327 0.228332 -3.75868 148 151 172
-0.818849 0.248288 -3.74861 165 155 175
-0.819372 0.268245 -3.73853 165 163 180
-0.821466 0.276124 -3.74432 167 157 173
-0.822775 0.290041 -3.74218 163 156 169
-0.824083 0.303959 -3.74004 164 157 168
-0.825392 0.317877 -3.7379 162 152 163
-0.8267 0.331794 -3.73576 162 157 167
-0.828795 0.339674 -3.74155 162 152 161
-0.830103 0.353591 -3.73941 163 154 164
-0.832198 0.361471 -3.7452 163 158 165
-0.834292 0.36935 -3.75099 167 159 164
-0.836387 0.377229 -3.75678 172 162 166
-0.837695 0.391147 -3.75464 176 177 175
-0.839004 0.405064 -3.75249 172 185 177
-0.840312 0.418982 -3.75035 180 198 185
-0.841621 0.4329 -3.74821 172 200 180
-0.842929 0.446817 -3.74607 174 205 181
-0.844238 0.460735 -3.74393 179 208 181
-0.846332 0.468614 -3.74972 182 207 179
-0.851571 0.452339 -3.78724 200 198 178
-0.850521 0.484373 -3.7613 191 201 175
-0.850258 0.510367 -3.74329 186 191 174
-0.851566 0.524285 -3.74115 188 175 168
-0.853661 0.532164 -3.74694 189 163 164
-0.854969 0.546082 -3.7448 189 156 162
-0.856277 0.559999 -3.74266 190 147 158
-0.859158 0.56184 -3.75638 198 148 160
-0.860467 0.575758 -3.75424 199 143 159
-0.861775 0.589676 -3.7521 198 133 154
-0.86387 0.597555 -3.75789 201 130 152
-0.865178 0.611472 -3.75575 201 130 152
-0.866487 0.62539 -3.75361 192 137 156
-0.868581 0.633269 -3.7594 190 145 162
-0.923816 0.975981 -3.82572 176 175 167
-0.605183 -1.08431 -3.54955 48 47 43
-0.610159 -1.07459 -3.56906 28 29 25
-0.612253 -1.06671 -3.57486 33 34 30
-0.613562 -1.0528 -3.57271 37 39 34
-0.626129 -1.00552 -3.60746 35 68 45
-0.626652 -0.985564 -3.59738 38 68 46
-0.628746 -0.977685 -3.60317 35 67 42
-0.632672 -0.935932 -3.59675 51 86 61
-0.637383 -0.900218 -3.59826 56 100 71
-0.639478 -0.892338 -3.60405 63 108 77
-0.641572 -0.884459 -3.60984 66 115 81
-0.642881 -0.870542 -3.6077 65 111 78
-0.644189 -0.856624 -3.60556 63 108 77
-0.662771 -0.687771 -3.59358 22 30 25
-0.6701 -0.624221 -3.5908 29 33 27
-0.671408 -0.610303 -3.58866 28 34 28
-0.680567 -0.51288 -3.57367 34 37 32
-0.706225 -0.398373 -3.63309 40 43 36
-0.708319 -0.390494 -3.63888 39 44 36
-0.715126 -0.3469 -3.64617 44 57 45
-0.718006 -0.345059 -3.6599 45 59 47
-0.718529 -0.325103 -3.64982 47 63 49
-0.719837 -0.311186 -3.64768 53 74 57
-0.721932 -0.303306 -3.65347 57 80 64
-0.720882 -0.271273 -3.62753 63 97 75
-0.726115 -0.215603 -3.61897 77 126 94
-0.72821 -0.207723 -3.62476 76 123 92
-0.730305 -0.199844 -3.63055 73 114 85
-0.733185 -0.198003 -3.64427 71 109 83
-0.732922 -0.172009 -3.62627 56 80 60
-0.735016 -0.16413 -3.63206 54 76 57
-0.737111 -0.15625 -3.63785 55 73 57
-0.7413 -0.140492 -3.64943 60 75 60
-0.74025 -0.108459 -3.62349 61 77 63
-0.745489 -0.124734 -3.66101 62 80 65
-0.764858 0.0380808 -3.65697 67 72 65
-0.766952 0.0459599 -3.66276 78 76 72
-0.767474 0.0659161 -3.65268 164 154 164
-0.792351 0.114516 -3.75025 141 162 178
-0.79366 0.128433 -3.74811 148 160 183
-0.794968 0.142351 -3.74597 151 154 182
-0.797063 0.15023 -3.75176 154 156 185
-0.798371 0.164148 -3.74962 153 151 179
-0.79968 0.178065 -3.74747 154 155 179
-0.800988 0.191983 -3.74533 156 157 179
-0.802297 0.205901 -3.74319 164 147 169
-0.803605 0.219819 -3.74105 160 137 159
-0.8057 0.227698 -3.74684 164 135 159
-0.807794 0.235577 -3.75263 167 134 159
-0.809889 0.243456 -3.75842 174 132 158
-0.810411 0.263412 -3.74835 172 123 148
-0.81172 0.27733 -3.74621 172 115 140
-0.813814 0.285209 -3.752 177 121 144
-0.815123 0.299127 -3.74986 181 133 151
-0.816431 0.313045 -3.74771 182 142 155
-0.818526 0.320924 -3.75351 192 145 159
-0.819834 0.334841 -3.75136 193 141 155
-0.821143 0.348759 -3.74922 187 145 156
-0.822451 0.362677 -3.74708 186 145 155
-0.824546 0.370556 -3.75287 188 149 158
-0.82664 0.378435 -3.75866 191 155 163
-0.827163 0.398391 -3.74859 198 176 173
-0.828471 0.412309 -3.74645 193 178 169
-0.82978 0.426227 -3.7443 201 195 181
-0.83266 0.428067 -3.75803 202 191 176
-0.833969 0.441985 -3.75589 203 201 180
-0.835277 0.455903 -3.75374 198 200 174
-0.836586 0.46982 -3.7516 193 195 172
-0.83868 0.4777 -3.75739 198 196 173
-0.839989 0.491617 -3.75525 202 191 172
-0.841297 0.505535 -3.75311 204 184 170
-0.843392 0.513414 -3.7589 210 180 169
-0.8447 0.527332 -3.75676 206 162 162
-0.846009 0.54125 -3.75462 206 151 160
-0.847317 0.555167 -3.75248 204 143 158
-0.848626 0.569085 -3.75034 205 134 153
-0.851506 0.570926 -3.76406 205 130 153
-0.853601 0.578805 -3.76985 206 128 154
-0.853337 0.604799 -3.75184 206 118 145
-0.857526 0.620558 -3.76342 199 121 148
-0.859621 0.628437 -3.76921 196 127 152
-0.862502 0.630278 -3.78294 199 130 156
-0.888946 0.738746 -3.85028 219 227 231
-0.943136 1.04154 -3.93675 181 180 174
-0.560087 -1.1711 -3.42492 67 86 76
-0.600412 -1.07339 -3.57095 30 32 27
-0.602507 -1.06551 -3.57674 34 37 31
-0.619269 -1.07442 -3.66915 41 69 48
-0.620308 -0.962561 -3.60292 93 139 101
-0.621617 -0.948644 -3.60078 93 141 103
-0.622925 -0.934726 -3.59863 86 137 100
-0.628945 -0.885094 -3.598 81 139 99
-0.633656 -0.849379 -3.59951 72 125 88
-0.647796 -0.814181 -3.65012 57 97 66
-0.653025 -0.686565 -3.59546 28 40 32
-0.657736 -0.65085 -3.59697 31 34 29
-0.66297 -0.595179 -3.58841 30 34 29
-0.664278 -0.581262 -3.58626 37 41 36
-0.68313 -0.510349 -3.63838 39 39 36
-0.685483 -0.456519 -3.61609 41 40 36
-0.686791 -0.442601 -3.61395 44 43 39
-0.688886 -0.434722 -3.61974 41 40 36
-0.689408 -0.414766 -3.60967 41 42 37
-0.691239 -0.380892 -3.59745 42 46 38
-0.70119 -0.361452 -3.63648 43 51 41
-0.702498 -0.347535 -3.63434 47 59 47
-0.707738 -0.363809 -3.67186 40 52 41
-0.70826 -0.343853 -3.66178 46 61 48
-0.707996 -0.317859 -3.64378 52 72 56
-0.710091 -0.309979 -3.64957 57 79 63
-0.712971 -0.308139 -3.66329 58 83 66
-0.711921 -0.276106 -3.63735 62 97 75
-0.712444 -0.256149 -3.62728 69 113 87
-0.713752 -0.242232 -3.62514 73 123 94
-0.718464 -0.206517 -3.62664 80 130 98
-0.720558 -0.198638 -3.63243 75 120 90
-0.722653 -0.190759 -3.63822 72 110 83
-0.721603 -0.158726 -3.61229 56 80 60
-0.726056 -0.168962 -3.64187 56 81 62
-0.727364 -0.155044 -3.63973 57 76 59
-0.729459 -0.147165 -3.64552 59 75 60
-0.730767 -0.133247 -3.64338 61 78 62
-0.732862 -0.125368 -3.64917 62 79 64
-0.73417 -0.11145 -3.64703 64 83 69
-0.737051 -0.10961 -3.66075 65 83 69
-0.736523 -0.0576204 -3.62474 63 79 66
-0.740977 -0.0678567 -3.65433 66 82 70
-0.757992 0.0411277 -3.67257 77 82 75
-0.784441 0.0776502 -3.786 142 153 162
-0.781819 0.12176 -3.7442 152 145 164
-0.783913 0.129639 -3.74999 162 136 160
-0.785222 0.143557 -3.74785 172 132 162
-0.788103 0.145398 -3.76157 175 131 160
-0.788625 0.165354 -3.7515 174 132 161
-0.790719 0.173233 -3.75729 179 131 156
-0.792028 0.187151 -3.75515 186 136 159
-0.794123 0.19503 -3.76094 192 137 160
-0.795431 0.208948 -3.7588 186 132 157
-0.796739 0.222865 -3.75666 186 125 152
-0.798048 0.236783 -3.75452 189 117 148
-0.799356 0.250701 -3.75237 189 117 149
-0.802237 0.252542 -3.7661 194 113 146
-0.802759 0.272498 -3.75602 198 107 140
-0.804854 0.280377 -3.76181 197 110 143
-0.805376 0.300333 -3.75174 199 117 145
-0.806685 0.314251 -3.7496 201 128 149
-0.807993 0.328168 -3.74746 202 136 153
-0.810874 0.330009 -3.76118 197 125 144
-0.812182 0.343927 -3.75904 199 133 150
-0.812705 0.363883 -3.74896 203 134 151
-0.814799 0.371762 -3.75476 200 135 151
-0.816894 0.379641 -3.76055 201 136 150
-0.818202 0.393559 -3.7584 201 146 153
-0.819511 0.407477 -3.75626 200 150 152
-0.820819 0.421394 -3.75412 194 156 153
-0.822128 0.435312 -3.75198 202 167 159
-0.823436 0.44923 -3.74984 200 169 156
-0.825531 0.457109 -3.75563 194 160 146
-0.826839 0.471027 -3.75349 191 162 147
-0.828148 0.484944 -3.75135 193 151 143
-0.830242 0.492824 -3.75714 192 150 144
-0.831551 0.506741 -3.75499 197 150 146
-0.832859 0.520659 -3.75285 202 146 148
-0.834954 0.528538 -3.75864 201 136 147
-0.836262 0.542456 -3.7565 204 128 147
-0.838357 0.550335 -3.76229 209 130 152
-0.839665 0.564253 -3.76015 206 122 148
-0.845685 0.613885 -3.75952 205 107 138
-0.84778 0.621764 -3.76531 199 114 142
-0.849874 0.629643 -3.7711 196 121 147
-0.852755 0.631484 -3.78482 199 127 152
-0.871607 0.702397 -3.83694 226 229 233
-0.879199 0.739952 -3.85217 220 227 232
-0.884174 0.749672 -3.87168 219 226 230
-0.891244 0.767271 -3.89698 220 226 230
-0.902751 0.99047 -3.81362 178 178 170
-1.01137 1.9298 -3.77413 38 21 16
-0.551126 -1.17593 -3.43473 59 77 68
-0.628363 -0.858409 -3.63098 70 130 85
-0.643537 -0.639408 -3.56927 38 50 43
-0.652707 -0.685875 -3.64645 35 48 34
-0.659249 -0.616286 -3.63574 34 34 32
-0.661074 -0.510467 -3.57744 40 41 36
-0.694324 -0.358405 -3.65208 41 49 40
-0.694846 -0.338449 -3.64201 48 60 48
-0.698513 -0.342647 -3.66367 46 60 47
-0.699822 -0.328729 -3.66152 50 67 53
-0.70113 -0.314812 -3.65938 55 76 61
-0.704011 -0.312971 -3.67311 62 86 69
-0.702175 -0.274899 -3.63924 63 99 77
-0.703483 -0.260982 -3.63709 67 112 86
-0.705578 -0.253102 -3.64288 73 123 94
-0.710025 -0.191393 -3.62639 77 122 92
-0.711334 -0.177475 -3.62424 67 101 76
-0.712642 -0.163558 -3.6221 59 85 64
-0.716309 -0.167756 -3.64376 58 85 65
-0.718404 -0.159876 -3.64955 58 80 61
-0.720499 -0.151997 -3.65534 60 78 62
-0.723115 -0.124162 -3.65106 67 84 69
-0.72521 -0.116283 -3.65685 68 86 72
-0.728613 -0.0944858 -3.6605 70 87 74
-0.730708 -0.0866066 -3.66629 70 87 74
-0.73123 -0.0666504 -3.65621 68 84 72
-0.733325 -0.0587712 -3.662 69 84 73
-0.735678 -0.00494121 -3.63971 68 79 69
-0.747459 0.0483724 -3.66653 68 72 65
-0.750076 0.0762078 -3.66224 183 176 183
-0.774953 0.124807 -3.75981 185 127 152
-0.777048 0.132686 -3.7656 185 126 151
-0.779142 0.140566 -3.77139 194 123 153
-0.778878 0.16656 -3.75338 199 119 150
-0.780973 0.174439 -3.75918 201 115 144
-0.782281 0.188357 -3.75703 203 120 147
-0.78359 0.202275 -3.75489 203 122 150
-0.784898 0.216193 -3.75275 201 115 145
-0.787779 0.218033 -3.76647 201 112 145
-0.789088 0.231951 -3.76433 200 106 140
-0.790918 0.265825 -3.75212 208 104 141
-0.793799 0.267665 -3.76584 209 102 141
-0.795107 0.281583 -3.7637 210 102 141
-0.797202 0.289462 -3.76949 208 102 140
-0.799819 0.317298 -3.76521 212 117 147
-0.801127 0.331215 -3.76306 206 114 141
-0.802436 0.345133 -3.76092 208 118 144
-0.803744 0.359051 -3.75878 209 120 145
-0.805839 0.36693 -3.76457 208 121 146
-0.807934 0.374809 -3.77036 215 128 153
-0.808456 0.394765 -3.76029 201 121 139
-0.809764 0.408683 -3.75815 204 124 138
-0.811073 0.422601 -3.75601 196 120 133
-0.813167 0.43048 -3.7618 199 128 139
-0.814476 0.444398 -3.75965 201 130 138
-0.81657 0.452277 -3.76545 194 125 131
-0.817879 0.466194 -3.7633 191 118 125
-0.819187 0.480112 -3.76116 193 121 129
-0.81971 0.500068 -3.75109 193 120 130
-0.822326 0.527904 -3.74681 200 122 138
-0.825207 0.529744 -3.76053 203 116 137
-0.827302 0.537624 -3.76632 210 114 142
-0.834108 0.581217 -3.77362 210 112 143
-0.835416 0.595135 -3.77148 211 111 141
-0.837511 0.603014 -3.77727 212 110 140
-0.838033 0.62297 -3.76719 206 115 142
-0.840914 0.624811 -3.78092 208 122 148
-0.843009 0.63269 -3.78671 199 124 149
-0.893005 0.991676 -3.8155 177 176 169
-0.896671 0.987479 -3.83716 178 178 170
-0.997955 1.93521 -3.75436 38 21 15
-1.03959 1.97489 -3.94433 36 18 12
-0.509169 -1.21493 -3.29574 61 62 58
-0.550291 -1.26715 -3.54188 49 53 49
-0.596895 -1.07385 -3.6592 40 65 46
-0.59689 -1.0019 -3.61311 86 144 99
-0.603174 -0.978264 -3.63048 93 154 103
-0.602124 -0.946231 -3.60454 88 150 100
-0.61783 -0.851164 -3.62493 78 142 93
-0.683005 -0.345122 -3.6381 46 53 44
-0.6851 -0.337243 -3.6439 48 58 48
-0.687195 -0.329364 -3.64969 50 65 52
-0.690075 -0.327523 -3.66341 52 70 56
-0.69217 -0.319644 -3.6692 59 81 65
-0.693478 -0.305726 -3.66706 64 91 73
-0.693214 -0.279732 -3.64905 66 101 78
-0.695309 -0.271852 -3.65484 65 104 80
-0.696618 -0.257935 -3.6527 70 117 90
-0.697926 -0.244017 -3.65056 77 134 102
-0.700279 -0.190187 -3.62827 81 130 99
-0.702374 -0.182308 -3.63406 73 114 86
-0.703682 -0.16839 -3.63192 64 95 71
-0.705777 -0.160511 -3.63771 60 87 66
-0.713369 -0.122956 -3.65294 70 88 73
-0.71625 -0.121115 -3.66666 71 88 74
-0.726717 -0.00977347 -3.64953 70 81 71
-0.74138 0.0453809 -3.69007 89 97 89
-0.794784 0.354218 -3.7686 214 109 143
-0.796092 0.368136 -3.76646 214 108 143
-0.797401 0.382054 -3.76431 214 113 145
-0.798709 0.395972 -3.76217 205 105 133
-0.800804 0.403851 -3.76796 208 107 136
-0.802112 0.417768 -3.76582 207 107 137
-0.804207 0.425648 -3.77161 207 104 135
-0.805515 0.439565 -3.76947 209 107 137
-0.806824 0.453483 -3.76733 202 102 128
-0.808918 0.461362 -3.77312 204 109 133
-0.811013 0.469241 -3.77891 207 110 137
-0.810749 0.495236 -3.7609 210 112 137
-0.81363 0.497077 -3.77463 206 107 135
-0.814938 0.510994 -3.77249 207 106 135
-0.817033 0.518874 -3.77828 206 101 134
-0.819128 0.526753 -3.78407 206 104 136
-0.81965 0.546709 -3.77399 212 106 138
-0.821745 0.554588 -3.77978 216 112 144
-0.822267 0.574544 -3.76971 221 121 150
-0.823575 0.588462 -3.76757 216 121 147
-0.824098 0.608418 -3.7575 212 123 149
-0.826192 0.616297 -3.76329 215 124 148
-0.828287 0.624177 -3.76908 213 123 148
-0.830381 0.632056 -3.77487 208 130 152
-0.836143 0.635737 -3.80231 205 142 160
-0.862587 0.744205 -3.86966 220 227 230
-0.871229 0.749727 -3.91083 220 227 230
-0.886139 0.994723 -3.83111 177 176 169
-0.529011 -1.12941 -3.3967 48 57 52
-0.586363 -1.0666 -3.65315 46 75 53
-0.586885 -1.04665 -3.64307 60 99 68
-0.587143 -1.0007 -3.61499 81 144 96
-0.590024 -0.998855 -3.62872 86 149 99
-0.592641 -0.97102 -3.62443 94 156 103
-0.593163 -0.951063 -3.61436 89 149 98
-0.594472 -0.937146 -3.61222 80 139 90
-0.601542 -0.919547 -3.63752 81 148 96
-0.671692 -0.403784 -3.67021 46 48 42
-0.674573 -0.401944 -3.68393 48 53 46
-0.675353 -0.336037 -3.64578 47 58 48
-0.678234 -0.334196 -3.6595 48 62 50
-0.681115 -0.332355 -3.67322 51 70 55
-0.682423 -0.318438 -3.67108 57 82 64
-0.683732 -0.30452 -3.66894 63 92 72
-0.686871 -0.256728 -3.65459 68 115 88
-0.688966 -0.248849 -3.66038 74 127 96
-0.692627 -0.181102 -3.63595 78 122 93
-0.693936 -0.167184 -3.6338 67 101 77
-0.69603 -0.159305 -3.63959 61 87 67
-0.701006 -0.149585 -3.65911 62 81 64
-0.717757 -0.0146057 -3.65935 77 89 79
-0.727966 0.0507849 -3.67029 74 85 78
-0.731633 0.0465871 -3.69195 80 89 82
-0.753107 0.0733897 -3.78587 114 163 167
-0.755202 0.0812689 -3.79166 129 167 177
-0.757296 0.0891481 -3.79745 114 129 144
-0.757818 0.109104 -3.78737 154 103 130
-0.776923 0.297913 -3.76533 211 96 135
-0.779017 0.305792 -3.77112 211 96 135
-0.784515 0.335469 -3.78056 209 96 135
-0.785037 0.355425 -3.77048 212 97 138
-0.787132 0.363304 -3.77627 212 98 138
-0.791844 0.399018 -3.77778 212 98 137
-0.797864 0.448651 -3.77715 210 94 135
-0.799172 0.462568 -3.775 211 97 135
-0.80048 0.476486 -3.77286 208 98 133
-0.802575 0.484365 -3.77865 209 98 134
-0.803883 0.498283 -3.77651 210 100 134
-0.805192 0.512201 -3.77437 207 100 134
-0.808073 0.514041 -3.78809 212 105 139
-0.809381 0.527959 -3.78595 213 110 142
-0.81069 0.541877 -3.78381 211 109 140
-0.812784 0.549756 -3.7896 214 112 142
-0.811734 0.581789 -3.76366 221 129 155
-0.813043 0.595707 -3.76152 215 131 154
-0.815137 0.603586 -3.76731 220 132 155
-0.817232 0.611465 -3.7731 223 133 154
-0.81854 0.625383 -3.77096 213 136 155
-0.822993 0.615147 -3.80055 209 137 154
-0.824302 0.629064 -3.79841 206 140 156
-0.826396 0.636943 -3.8042 197 145 159
-0.842889 0.725972 -3.83252 224 230 233
-0.854413 0.733334 -3.88741 220 228 231
-0.856507 0.741214 -3.8932 220 228 231
-0.857816 0.755131 -3.89106 221 227 230
-0.861483 0.750933 -3.91271 219 227 232
-0.863577 0.758813 -3.9185 219 227 232
-0.877178 0.989891 -3.84093 177 177 170
-0.471341 -1.19153 -3.19123 51 58 60
-0.506961 -1.20147 -3.38185 47 52 51
-0.506433 -1.14949 -3.34583 52 62 59
-0.529748 -1.2327 -3.51971 69 70 63
-0.551745 -1.18594 -3.60355 72 73 67
-0.553839 -1.17806 -3.60934 80 80 73
-0.565098 -1.1447 -3.64623 85 84 77
-0.577138 -1.04544 -3.64496 60 100 70
-0.582108 -0.963775 -3.61839 85 146 96
-0.58263 -0.943819 -3.60831 76 133 87
-0.588392 -0.940137 -3.63576 66 118 76
-0.590487 -0.932258 -3.64155 75 131 87
-0.593104 -0.904423 -3.63727 90 158 103
-0.595984 -0.902582 -3.65099 87 154 99
-0.625298 -0.648382 -3.63989 30 41 31
-0.629487 -0.632624 -3.65147 36 37 35
-0.661159 -0.39654 -3.66416 48 51 45
-0.66404 -0.394699 -3.67788 47 55 46
-0.665348 -0.380781 -3.67574 48 59 48
-0.663512 -0.34271 -3.64187 43 54 43
-0.667965 -0.352946 -3.67146 46 62 48
-0.669274 -0.339028 -3.66932 48 65 51
-0.670582 -0.325111 -3.66718 51 75 57
-0.671891 -0.311193 -3.66504 59 88 68
-0.673199 -0.297275 -3.66289 66 99 77
-0.67608 -0.295435 -3.67662 70 108 84
-0.676602 -0.275478 -3.66654 67 108 83
-0.677124 -0.255522 -3.65647 64 111 83
-0.678433 -0.241604 -3.65433 72 130 97
-0.678955 -0.221648 -3.64425 88 160 119
-0.683667 -0.185934 -3.64576 83 139 105
-0.685761 -0.178055 -3.65155 76 124 93
-0.685497 -0.15206 -3.63355 63 89 69
-0.692567 -0.134461 -3.65885 71 86 71
-0.696234 -0.138659 -3.68051 71 88 73
-0.697543 -0.124741 -3.67836 76 94 79
-0.719006 0.0459526 -3.68011 77 90 80
-0.721887 0.0477933 -3.69383 74 86 78
-0.74336 0.0745959 -3.78775 113 164 166
-0.744669 0.0885136 -3.78561 117 148 159
-0.746763 0.0963928 -3.7914 126 117 137
-0.762729 0.23741 -3.78371 211 97 137
-0.762465 0.263405 -3.7657 213 99 136
-0.765346 0.265246 -3.77942 216 98 136
-0.76744 0.273125 -3.78522 214 99 136
-0.767963 0.293081 -3.77514 214 102 137
-0.768485 0.313037 -3.76507 213 105 140
-0.770579 0.320916 -3.77086 213 104 139
-0.771888 0.334834 -3.76872 212 103 140
-0.773982 0.342713 -3.77451 212 100 138
-0.774505 0.362669 -3.76443 213 102 142
-0.777386 0.36451 -3.77816 214 97 138
-0.778694 0.378428 -3.77602 212 95 137
-0.780002 0.392346 -3.77387 213 97 138
-0.782097 0.400225 -3.77966 214 97 137
-0.783405 0.414142 -3.77752 214 96 138
-0.784714 0.42806 -3.77538 212 94 136
-0.786022 0.441978 -3.77324 215 99 141
-0.786545 0.461934 -3.76317 209 105 140
-0.788639 0.469813 -3.76896 211 105 140
-0.790734 0.477692 -3.77475 213 109 141
-0.794401 0.473495 -3.7964 210 106 139
-0.794923 0.493451 -3.78633 214 112 142
-0.797804 0.495291 -3.80005 217 124 148
-0.799112 0.509209 -3.79791 217 127 150
-0.798848 0.535204 -3.7799 213 122 146
-0.802515 0.531006 -3.80156 211 127 147
-0.80461 0.538885 -3.80735 209 134 150
-0.805918 0.552803 -3.80521 206 133 150
-0.807227 0.566721 -3.80307 205 135 153
-0.806963 0.592715 -3.78506 207 135 153
-0.811416 0.582479 -3.81465 196 143 158
-0.811152 0.608474 -3.79664 206 140 155
-0.814033 0.610314 -3.81036 197 146 161
-0.813769 0.636309 -3.79236 198 155 169
-0.81665 0.63815 -3.80608 191 157 168
-0.838904 0.730859 -3.86185 223 230 232
-0.844666 0.734541 -3.88929 220 228 233
-0.845974 0.748458 -3.88715 221 228 232
-0.848069 0.756337 -3.89294 221 227 232
-0.848591 0.776294 -3.88287 220 227 230
-0.852258 0.772096 -3.90452 221 227 231
-0.869796 0.901036 -3.91269 220 226 228
-0.911166 1.03866 -4.03858 174 172 166
-0.968193 1.91887 -3.77008 41 23 18
-0.554566 -1.13746 -3.64018 84 83 76
-0.580476 -0.905057 -3.62543 86 148 96
-0.582571 -0.897178 -3.63122 91 158 102
-0.584665 -0.889299 -3.63701 91 160 103
-0.591735 -0.8717 -3.66231 88 154 100
-0.593044 -0.857782 -3.66017 90 154 104
-0.595139 -0.849903 -3.66596 92 152 107
-0.612154 -0.740918 -3.68421 53 94 59
-0.61896 -0.697325 -3.6915 85 125 88
-0.617646 -0.639297 -3.64756 36 46 37
-0.619741 -0.631418 -3.65335 35 38 34
-0.622621 -0.629577 -3.66707 35 37 33
-0.647487 -0.437087 -3.67247 43 44 40
-0.649582 -0.429207 -3.67826 43 47 41
-0.652463 -0.427367 -3.69198 45 53 45
-0.652199 -0.401372 -3.67398 46 54 45
-0.64879 -0.351223 -3.62424 42 54 43
-0.650885 -0.343344 -3.63003 41 56 44
-0.653766 -0.341503 -3.64376 40 57 43
-0.656647 -0.339663 -3.65748 43 63 47
-0.658741 -0.331784 -3.66327 44 67 50
-0.66005 -0.317866 -3.66113 54 83 63
-0.661358 -0.303948 -3.65899 65 101 78
-0.665283 -0.262195 -3.65256 62 107 80
-0.668686 -0.240398 -3.65621 65 123 89
-0.671567 -0.238558 -3.66993 71 133 98
-0.672876 -0.22464 -3.66779 82 155 114
-0.67392 -0.184728 -3.64765 85 145 109
-0.675229 -0.17081 -3.6455 75 120 91
-0.677323 -0.162931 -3.6513 66 99 74
-0.682299 -0.153211 -3.67081 64 86 67
-0.686746 -0.0915015 -3.65431 80 100 86
-0.688841 -0.0836224 -3.6601 80 98 85
-0.692766 -0.0418693 -3.65368 67 81 70
-0.699572 0.00172444 -3.66097 69 81 71
-0.709259 0.0471589 -3.682 76 91 80
-0.71214 0.0489996 -3.69572 73 92 82
-0.733614 0.0758022 -3.78964 118 168 169
-0.736495 0.0776429 -3.80336 121 171 175
-0.738589 0.0855221 -3.80915 133 167 179
-0.737539 0.117555 -3.78321 168 105 134
-0.739634 0.125434 -3.789 149 65 93
-0.75246 0.21866 -3.79567 218 103 141
-0.753768 0.232578 -3.79352 217 103 141
-0.755077 0.246496 -3.79138 220 108 144
-0.754813 0.27249 -3.77338 216 111 143
-0.757694 0.274331 -3.7871 219 110 142
-0.760575 0.276172 -3.80082 218 114 146
-0.760311 0.302166 -3.78282 217 115 144
-0.761619 0.316084 -3.78067 219 119 147
-0.762928 0.330002 -3.77853 216 119 148
-0.766594 0.325804 -3.80019 215 126 149
-0.768689 0.333683 -3.80598 215 126 150
-0.769998 0.347601 -3.80384 217 125 151
-0.772092 0.35548 -3.80963 214 126 152
-0.770256 0.393552 -3.77576 216 114 149
-0.772351 0.401431 -3.78155 216 115 149
-0.773659 0.415349 -3.77941 217 111 146
-0.774967 0.429266 -3.77727 216 115 147
-0.779421 0.41903 -3.80685 213 127 150
-0.77837 0.451063 -3.78091 214 113 143
-0.782824 0.440827 -3.8105 213 131 150
-0.781774 0.47286 -3.78456 216 121 146
-0.78544 0.468662 -3.80622 208 130 143
-0.786749 0.48258 -3.80408 213 129 146
-0.788844 0.490459 -3.80987 208 136 146
-0.787793 0.522492 -3.78393 212 135 153
-0.789102 0.53641 -3.78179 202 135 150
-0.791197 0.544289 -3.78758 198 133 145
-0.794077 0.54613 -3.8013 197 138 146
-0.796172 0.554009 -3.80709 194 140 150
-0.798267 0.561888 -3.81288 193 147 158
-0.800361 0.569767 -3.81867 189 151 163
-0.799311 0.601801 -3.79274 193 148 161
-0.80062 0.615718 -3.79059 194 154 166
-0.801928 0.629636 -3.78845 186 156 169
-0.804023 0.637515 -3.79424 183 161 173
-0.806903 0.639356 -3.80797 173 163 172
-0.82785 0.718148 -3.86587 221 230 235
-0.829158 0.732065 -3.86373 222 230 234
-0.832825 0.727868 -3.88538 221 230 235
-0.831775 0.759901 -3.85945 222 228 231
-0.836228 0.749665 -3.88903 222 228 233
-0.83675 0.769621 -3.87896 221 228 231
-0.838845 0.7775 -3.88475 221 228 231
-0.841726 0.779341 -3.89847 221 228 232
-0.855866 0.814539 -3.94908 219 228 231
-0.860049 0.902243 -3.91458 221 227 229
-0.485367 -1.135 -3.33374 45 56 52
-0.509722 -1.10635 -3.44138 56 66 64
-0.564188 -0.973439 -3.63802 65 121 79
-0.566804 -0.945604 -3.63374 44 88 53
-0.572566 -0.941923 -3.66118 66 116 78
-0.571516 -0.909889 -3.63524 83 145 95
-0.574397 -0.908049 -3.64897 86 153 100
-0.576491 -0.900169 -3.65476 92 161 104
-0.581725 -0.844499 -3.64619 86 153 102
-0.583034 -0.830581 -3.64405 78 141 95
-0.583556 -0.810625 -3.63398 52 106 67
-0.58565 -0.802746 -3.63977 42 90 55
-0.609994 -0.630211 -3.65524 37 45 35
-0.612089 -0.622332 -3.66103 37 39 35
-0.61497 -0.620492 -3.67475 39 39 36
-0.642722 -0.498106 -3.73995 43 44 40
-0.638527 -0.441919 -3.68229 44 49 43
-0.639835 -0.428001 -3.68015 45 52 44
-0.64193 -0.420122 -3.68594 47 56 47
-0.641666 -0.394127 -3.66793 43 56 44
-0.642975 -0.38021 -3.66579 48 63 50
-0.644283 -0.366292 -3.66365 49 69 53
-0.645592 -0.352374 -3.66151 48 73 54
-0.6469 -0.338456 -3.65936 44 73 53
-0.648208 -0.324539 -3.65722 47 83 60
-0.650303 -0.31666 -3.66301 58 97 72
-0.650039 -0.290665 -3.64501 71 119 89
-0.65292 -0.288824 -3.65873 73 122 92
-0.652656 -0.26283 -3.64072 67 115 86
-0.653965 -0.248912 -3.63858 61 114 82
-0.659726 -0.245231 -3.66603 57 115 80
-0.661821 -0.237351 -3.67182 67 131 93
-0.663129 -0.223434 -3.66968 82 156 114
-0.665224 -0.215554 -3.67547 87 163 120
-0.666268 -0.175642 -3.65532 82 134 101
-0.667577 -0.161724 -3.65318 70 107 81
-0.668885 -0.147807 -3.65104 68 94 74
-0.673861 -0.138087 -3.67055 71 89 72
-0.675955 -0.130208 -3.67634 72 90 74
-0.678308 -0.0763776 -3.65405 79 95 83
-0.680403 -0.0684984 -3.65984 74 90 79
-0.680925 -0.0485423 -3.64977 84 98 88
-0.689826 0.00293067 -3.66286 67 80 69
-0.68799 0.0410023 -3.62899 70 83 72
-0.701607 0.0562443 -3.68967 76 92 83
-0.705274 0.0520465 -3.71132 77 95 88
-0.706319 0.0919589 -3.69118 186 174 186
-0.725962 0.0848876 -3.79731 118 169 174
-0.735907 0.176273 -3.79025 219 97 138
-0.738788 0.178114 -3.80397 217 99 140
-0.737738 0.210147 -3.77804 218 105 141
-0.740619 0.211987 -3.79176 217 103 139
-0.741141 0.231944 -3.78169 214 107 141
-0.743236 0.239823 -3.78748 214 110 143
-0.746116 0.241663 -3.8012 210 109 142
-0.747425 0.255581 -3.79906 212 114 145
-0.750306 0.257422 -3.81278 205 121 149
-0.750042 0.283417 -3.79477 214 126 152
-0.752923 0.285257 -3.8085 211 133 156
-0.751873 0.31729 -3.78256 214 135 156
-0.756326 0.307054 -3.81215 207 139 159
-0.757634 0.320972 -3.81 205 141 157
-0.75737 0.346966 -3.792 210 130 151
-0.760251 0.348807 -3.80572 207 133 153
-0.763132 0.350648 -3.81944 196 139 156
-0.763654 0.370604 -3.80937 202 134 152
-0.764963 0.384522 -3.80723 203 137 152
-0.767843 0.386362 -3.82095 194 147 160
-0.769152 0.40028 -3.81881 193 142 153
-0.77046 0.414198 -3.81667 200 151 160
-0.768624 0.452269 -3.7828 209 134 146
-0.770719 0.460149 -3.78859 205 138 142
-0.772027 0.474066 -3.78645 207 136 145
-0.77648 0.46383 -3.81603 203 153 148
-0.77543 0.495863 -3.7901 206 148 148
-0.777525 0.503742 -3.79589 201 147 146
-0.781978 0.493506 -3.82547 205 175 161
-0.780928 0.525539 -3.79954 197 155 153
-0.782236 0.539457 -3.79739 190 160 156
-0.786689 0.529221 -3.82698 196 176 168
-0.785639 0.561254 -3.80104 184 155 158
-0.787734 0.569133 -3.80683 182 160 166
-0.789042 0.583051 -3.80469 176 159 169
-0.790351 0.596968 -3.80255 174 162 176
-0.790873 0.616925 -3.79248 172 164 176
-0.792182 0.630842 -3.79034 164 163 175
-0.795062 0.632683 -3.80406 159 166 178
-0.797157 0.640562 -3.80985 155 172 182
-0.799252 0.648441 -3.81564 158 179 188
-0.817317 0.725392 -3.85982 224 231 236
-0.817839 0.745349 -3.84975 223 229 232
-0.821506 0.741151 -3.8714 223 229 234
-0.823601 0.74903 -3.8772 222 229 233
-0.824909 0.762948 -3.87505 222 229 233
-0.827004 0.770827 -3.88084 221 228 232
-0.829098 0.778706 -3.88664 221 228 232
-0.831979 0.780547 -3.90036 221 228 232
-0.868901 0.856465 -4.04274 220 226 229
-0.441843 -1.23386 -3.22497 65 68 68
-0.553919 -0.992189 -3.64998 69 133 90
-0.561769 -0.908683 -3.63713 83 144 95
-0.563864 -0.900804 -3.64292 90 156 102
-0.565959 -0.892925 -3.64871 94 163 106
-0.568839 -0.891084 -3.66243 92 163 104
-0.571979 -0.843293 -3.64808 86 153 102
-0.572501 -0.823336 -3.638 70 132 88
-0.573809 -0.809419 -3.63586 58 112 74
-0.592919 -0.692555 -3.6599 94 143 97
-0.594228 -0.678637 -3.65775 101 151 105
-0.604437 -0.613247 -3.6687 35 39 33
-0.606531 -0.605368 -3.67449 39 39 36
-0.628786 -0.512658 -3.73026 44 43 39
-0.632189 -0.490861 -3.73391 44 47 41
-0.624064 -0.404482 -3.63658 43 47 41
-0.628517 -0.414718 -3.66617 42 52 42
-0.631397 -0.412877 -3.67989 46 60 48
-0.631134 -0.386882 -3.66188 44 63 47
-0.634014 -0.385042 -3.67561 53 77 58
-0.632964 -0.353009 -3.64967 50 81 59
-0.634273 -0.339091 -3.64753 49 86 62
-0.635581 -0.325173 -3.64538 54 97 70
-0.63689 -0.311256 -3.64324 66 117 86
-0.638198 -0.297338 -3.6411 74 129 96
-0.639507 -0.28342 -3.63896 77 133 98
-0.641601 -0.275541 -3.64475 78 136 100
-0.644482 -0.2737 -3.65847 78 137 101
-0.645004 -0.253744 -3.6484 66 123 88
-0.647099 -0.245865 -3.65419 54 114 78
-0.64998 -0.244024 -3.66791 59 121 84
-0.652074 -0.236145 -3.6737 66 133 93
-0.654169 -0.228266 -3.67949 77 149 106
-0.656522 -0.174436 -3.65721 88 145 109
-0.65783 -0.160518 -3.65506 78 119 90
-0.659925 -0.152639 -3.66085 69 101 78
-0.677462 -0.0236985 -3.66903 172 184 175
-0.678243 0.0422086 -3.63087 79 87 76
-0.691861 0.0574505 -3.69155 78 94 84
-0.695528 0.0532528 -3.71321 76 96 87
-0.696572 0.0931651 -3.69306 184 173 184
-0.721449 0.141765 -3.79063 201 103 132
-0.72433 0.143605 -3.80435 196 107 136
-0.725639 0.157523 -3.80221 213 104 142
-0.726161 0.177479 -3.79214 213 102 140
-0.728255 0.185358 -3.79793 211 105 142
-0.729564 0.199276 -3.79579 215 108 145
-0.730872 0.213194 -3.79364 210 111 144
-0.734539 0.208996 -3.8153 201 118 150
-0.735848 0.222914 -3.81316 202 118 150
-0.737156 0.236831 -3.81102 203 117 149
-0.738465 0.250749 -3.80887 202 126 156
-0.738987 0.270705 -3.7988 201 139 164
-0.740295 0.284623 -3.79666 203 141 164
-0.74239 0.292502 -3.80245 201 144 165
-0.743698 0.30642 -3.80031 201 146 165
-0.744221 0.326376 -3.79023 194 145 161
-0.747101 0.328217 -3.80396 194 146 162
-0.74841 0.342134 -3.80182 188 142 159
-0.749718 0.356052 -3.79967 188 143 159
-0.751813 0.363931 -3.80546 191 143 160
-0.753121 0.377849 -3.80332 192 147 160
-0.753644 0.397805 -3.79325 193 149 157
-0.755738 0.405684 -3.79904 191 153 157
-0.760191 0.395448 -3.82863 181 167 172
-0.758355 0.433519 -3.79476 203 158 157
-0.762808 0.423283 -3.82434 195 172 167
-0.764903 0.431162 -3.83013 196 188 176
-0.766998 0.439042 -3.83592 192 191 179
-0.768306 0.452959 -3.83378 200 196 177
-0.769614 0.466877 -3.83164 203 196 173
-0.770923 0.480795 -3.8295 208 197 174
-0.773017 0.488674 -3.83529 201 197 172
-0.770395 0.532784 -3.79349 193 184 174
-0.773012 0.560619 -3.78921 176 175 176
-0.775107 0.568499 -3.795 168 174 176
-0.777201 0.576378 -3.80079 163 172 179
-0.779296 0.584257 -3.80658 155 172 182
-0.780604 0.598175 -3.80444 151 172 187
-0.781127 0.618131 -3.79436 147 170 185
-0.783221 0.62601 -3.80015 139 173 189
-0.785316 0.633889 -3.80594 137 172 185
-0.78741 0.641768 -3.81173 135 177 190
-0.789505 0.649648 -3.81752 137 179 191
-0.80757 0.726599 -3.86171 224 231 236
-0.808879 0.740516 -3.85957 224 230 233
-0.810973 0.748396 -3.86536 223 229 233
-0.81464 0.744198 -3.88701 223 230 234
-0.81359 0.776231 -3.86107 222 229 233
-0.81883 0.759956 -3.89859 223 229 233
-0.820924 0.767835 -3.90438 222 229 232
-0.822233 0.781753 -3.90224 221 229 232
-0.487618 -1.20372 -3.49552 56 65 61
-0.543386 -0.984945 -3.64393 69 128 88
-0.546267 -0.983104 -3.65765 62 112 76
-0.548098 -0.94923 -3.64544 46 82 54
-0.553595 -0.919554 -3.65488 76 131 89
-0.554117 -0.899598 -3.6448 90 154 104
-0.556212 -0.891719 -3.65059 92 161 105
-0.559093 -0.889878 -3.66432 91 161 105
-0.583173 -0.691349 -3.66178 92 139 94
-0.585267 -0.68347 -3.66757 103 154 106
-0.590243 -0.67375 -3.68708 91 139 94
-0.593904 -0.606002 -3.66265 36 40 33
-0.595999 -0.598123 -3.66844 37 38 34
-0.616681 -0.493336 -3.70834 45 44 41
-0.619562 -0.491496 -3.72207 42 44 39
-0.622443 -0.489655 -3.73579 46 51 44
-0.614317 -0.403275 -3.63846 42 52 42
-0.619556 -0.41955 -3.67598 44 58 45
-0.619292 -0.393555 -3.65798 42 63 46
-0.622173 -0.391715 -3.6717 48 76 55
-0.621123 -0.359682 -3.64576 59 95 70
-0.623218 -0.351802 -3.65155 64 108 79
-0.624526 -0.337885 -3.64941 71 121 89
-0.626621 -0.330006 -3.6552 73 128 94
-0.627929 -0.316088 -3.65306 77 135 99
-0.629238 -0.30217 -3.65092 84 147 108
-0.630546 -0.288252 -3.64878 87 153 112
-0.632641 -0.280373 -3.65457 89 156 115
-0.633949 -0.266456 -3.65243 85 150 111
-0.636044 -0.258576 -3.65822 78 142 104
-0.636566 -0.23862 -3.64814 67 133 93
-0.642328 -0.234939 -3.67559 72 142 99
-0.644422 -0.22706 -3.68138 81 156 110
-0.646517 -0.21918 -3.68717 85 162 115
-0.646775 -0.17323 -3.65909 90 150 113
-0.64887 -0.16535 -3.66488 84 136 102
-0.650965 -0.157471 -3.67067 72 111 84
-0.663527 -0.0382506 -3.65933 101 116 105
-0.682114 0.0586568 -3.69344 78 96 85
-0.708564 0.0951793 -3.80687 152 166 177
-0.709086 0.115135 -3.7968 161 128 148
-0.712489 0.136932 -3.80044 180 117 142
-0.713797 0.15085 -3.7983 195 120 151
-0.715106 0.164768 -3.79616 198 114 149
-0.7172 0.172647 -3.80195 201 113 150
-0.717723 0.192603 -3.79188 198 119 155
-0.720604 0.194444 -3.8056 200 121 155
-0.721126 0.2144 -3.79553 196 120 151
-0.724007 0.216241 -3.80925 190 127 157
-0.725315 0.230158 -3.80711 189 128 158
-0.72741 0.238037 -3.8129 186 135 163
-0.728718 0.251955 -3.81076 190 142 169
-0.72924 0.271911 -3.80068 184 157 181
-0.730549 0.285829 -3.79854 175 160 181
-0.731857 0.299747 -3.7964 168 157 177
-0.733952 0.307626 -3.80219 168 159 179
-0.73526 0.321544 -3.80005 173 158 176
-0.736569 0.335461 -3.79791 170 157 172
-0.738663 0.34334 -3.8037 166 159 173
-0.739972 0.357258 -3.80156 166 160 173
-0.74128 0.371176 -3.79942 165 163 173
-0.742589 0.385093 -3.79727 175 166 172
-0.744683 0.392973 -3.80307 178 168 171
-0.746778 0.400852 -3.80886 179 172 172
-0.748086 0.41477 -3.80671 186 181 176
-0.748609 0.434726 -3.79664 195 191 177
-0.750703 0.442605 -3.80243 200 191 176
-0.752798 0.450484 -3.80822 197 191 171
-0.754106 0.464402 -3.80608 199 194 170
-0.755415 0.478319 -3.80394 204 200 173
-0.758296 0.48016 -3.81766 200 195 169
-0.758818 0.500116 -3.80759 197 200 173
-0.760126 0.514034 -3.80545 186 196 170
-0.761435 0.527952 -3.8033 185 199 177
-0.762743 0.541869 -3.80116 172 197 185
-0.764838 0.549749 -3.80695 163 192 183
-0.766146 0.563666 -3.80481 150 183 182
-0.767455 0.577584 -3.80267 139 179 187
-0.768763 0.591502 -3.80053 131 176 193
-0.770072 0.605419 -3.79839 127 176 196
-0.772166 0.613299 -3.80418 122 176 195
-0.773475 0.627216 -3.80204 111 175 192
-0.777664 0.642975 -3.81362 119 180 195
-0.780545 0.644815 -3.82734 117 182 197
-0.799918 0.735684 -3.86938 225 230 235
-0.802013 0.743563 -3.87517 225 230 233
-0.804108 0.751443 -3.88096 224 230 233
-0.806988 0.753283 -3.89469 224 230 233
-0.809869 0.755124 -3.90841 224 230 233
-0.811178 0.769042 -3.90627 222 229 232
-0.8117 0.788998 -3.89619 221 229 232
-0.819034 0.780602 -3.9395 222 229 231
-0.824009 0.790322 -3.95902 221 229 231
-0.497509 -1.13764 -3.55745 86 90 84
-0.532853 -0.9777 -3.63788 66 121 84
-0.535734 -0.975859 -3.6516 58 104 72
-0.537565 -0.941985 -3.63939 43 76 51
-0.555625 -0.793089 -3.63749 105 153 119
-0.559028 -0.771292 -3.64114 103 139 112
-0.565834 -0.727698 -3.64843 64 90 66
-0.571859 -0.750011 -3.69389 39 63 42
-0.573168 -0.736093 -3.69174 47 71 48
