ply
format ascii 1.0
element face 0
property list uchar int vertex_indices
element vertex 1237
property float x
property float y
property float z
property uchar diffuse_red
property uchar diffuse_green
property uchar diffuse_blue
end_header
-0.23729 -0.640307 -3.59334 52 28 11
-0.236286 -0.630384 -3.59408 52 28 11
-0.237838 -0.619493 -3.58519 53 29 12
-0.234279 -0.610539 -3.59554 61 32 14
-0.235831 -0.599648 -3.58666 58 31 12
-0.234827 -0.589725 -3.58739 64 34 15
-0.233824 -0.579803 -3.58812 67 35 17
-0.23282 -0.56988 -3.58885 75 41 20
-0.231817 -0.559958 -3.58959 80 44 21
-0.233368 -0.549067 -3.5807 78 44 21
-0.232365 -0.539144 -3.58143 82 46 22
-0.231361 -0.529222 -3.58217 87 48 23
-0.230358 -0.519299 -3.5829 92 50 25
-0.229354 -0.509377 -3.58363 93 50 25
-0.225795 -0.500423 -3.59398 99 51 26
-0.220415 -0.368524 -3.57465 118 65 33
-0.219411 -0.358601 -3.57538 110 56 23
-0.215853 -0.349648 -3.58574 116 62 29
-0.207276 -0.291081 -3.59975 125 69 36
-0.211383 -0.279221 -3.58125 117 62 29
-0.210379 -0.269299 -3.58198 129 74 41
-0.206913 -0.208795 -3.57676 137 82 50
-0.203355 -0.199841 -3.58711 129 73 41
-0.194686 -0.192825 -3.6167 135 79 45
-0.182736 -0.0222051 -3.60992 148 91 57
-0.160837 0.0107033 -3.68018 194 162 132
-0.0761591 0.0610194 -3.97463 209 200 173
-0.0649355 0.0670667 -4.01384 197 194 174
-0.0620174 0.148384 -4.00046 104 127 106
-0.0508862 0.205982 -4.0241 109 146 124
-0.0447727 0.213967 -4.04407 114 153 134
-0.0335492 0.220014 -4.08328 157 185 174
-0.0274357 0.227999 -4.10325 185 208 202
0.00112492 0.248078 -4.20165 225 227 230
0.00468344 0.257032 -4.212 212 199 209
0.000576965 0.268892 -4.19349 197 174 188
0.00413549 0.277846 -4.20384 203 160 181
0.00513901 0.287768 -4.20458 215 149 175
0.0284972 0.361336 -4.26816 229 129 166
0.0295007 0.371258 -4.26889 227 130 166
0.0305042 0.381181 -4.26962 223 133 168
0.0289528 0.392072 -4.26073 222 136 168
0.0274013 0.402963 -4.25185 222 140 173
0.0284048 0.412886 -4.25258 221 146 176
0.0370733 0.419902 -4.28217 200 170 198
0.0304119 0.432731 -4.25405 210 161 185
0.0339704 0.441684 -4.2644 194 179 200
0.0349739 0.451607 -4.26513 185 182 203
0.0359774 0.461529 -4.26586 174 184 201
0.0395359 0.470483 -4.27622 147 182 201
0.0405395 0.480406 -4.27695 141 185 202
0.0425465 0.500251 -4.27841 138 193 208
0.0612503 0.606492 -4.31533 73 89 85
0.0596988 0.617383 -4.30645 53 70 64
0.0607023 0.627306 -4.30718 52 65 60
0.0565958 0.639166 -4.28867 51 69 63
0.0575993 0.649088 -4.28941 51 64 59
0.156967 0.765955 -4.61784 42 42 36
0.16965 0.812662 -4.65036 28 24 20
0.0536649 1.13482 -4.13146 149 148 144
0.101114 1.15804 -4.29792 165 166 159
0.0555795 1.20622 -4.11735 171 174 170
0.0854144 1.37006 -4.1779 167 170 166
0.0838629 1.38095 -4.16902 164 167 162
0.206589 1.57138 -4.56103 177 188 183
0.201935 1.60406 -4.53437 184 193 190
0.177751 1.70595 -4.41591 180 187 182
0.1762 1.71684 -4.40702 185 192 187
0.213429 1.74394 -4.53501 182 189 184
0.215436 1.76378 -4.53647 186 192 188
-0.365539 -1.21729 -3.25743 76 101 88
-0.346743 -1.1626 -3.30992 60 82 71
-0.240621 -1.11011 -3.68206 30 24 19
-0.247282 -1.09729 -3.65393 36 33 27
-0.246279 -1.08736 -3.65466 26 21 16
-0.245275 -1.07744 -3.6554 26 20 15
-0.230493 -1.06244 -3.70496 45 34 23
-0.2346 -1.05058 -3.68645 38 29 19
-0.241261 -1.03775 -3.65833 29 22 15
-0.245916 -1.00508 -3.63167 25 22 14
-0.233689 -0.989107 -3.67161 42 29 15
-0.232685 -0.979184 -3.67234 45 32 16
-0.234237 -0.968293 -3.66346 42 30 16
-0.23223 -0.948448 -3.66492 53 39 22
-0.23077 -0.907789 -3.65823 54 39 20
-0.231596 -0.732325 -3.60335 49 32 17
-0.230592 -0.722402 -3.60409 50 32 16
-0.23114 -0.701589 -3.59593 50 29 14
-0.230137 -0.691666 -3.59667 52 29 12
-0.229133 -0.681744 -3.5974 54 29 11
-0.228129 -0.671821 -3.59813 56 29 11
-0.229681 -0.66093 -3.58925 55 28 10
-0.228677 -0.651007 -3.58998 57 29 11
-0.225119 -0.642054 -3.60033 68 35 14
-0.22667 -0.631162 -3.59144 65 35 15
-0.225667 -0.62124 -3.59218 74 40 20
-0.227218 -0.610348 -3.58329 68 37 17
-0.22366 -0.601395 -3.59364 80 44 22
-0.222656 -0.591472 -3.59437 87 47 24
-0.224208 -0.580581 -3.58549 84 47 25
-0.223204 -0.570658 -3.58622 90 51 27
-0.224756 -0.559767 -3.57733 91 53 27
-0.223752 -0.549845 -3.57807 92 52 26
-0.222749 -0.539922 -3.5788 94 53 26
-0.221745 -0.53 -3.57953 97 52 25
-0.220742 -0.520077 -3.58027 97 52 24
-0.217731 -0.49031 -3.58246 100 51 24
-0.216728 -0.480387 -3.5832 103 52 24
-0.213717 -0.45062 -3.5854 99 48 18
-0.20724 -0.360348 -3.58237 121 69 36
-0.206237 -0.350426 -3.5831 118 66 33
-0.193099 -0.272983 -3.6082 132 77 44
-0.191184 -0.201588 -3.5941 131 78 45
-0.178594 -0.103332 -3.61104 138 85 48
-0.180145 -0.0924407 -3.60216 137 83 48
-0.145108 0.0179101 -3.69752 202 172 144
-0.0553197 0.0662886 -4.01121 208 201 178
-0.0412704 0.205204 -4.02147 107 146 122
-0.0351568 0.213189 -4.04144 111 153 133
-0.0341533 0.223111 -4.04217 139 182 169
-0.0203748 0.22819 -4.091 171 199 193
-0.0193713 0.238112 -4.09173 192 221 220
0.00818579 0.248269 -4.18939 223 226 228
0.0219643 0.253348 -4.23822 220 209 216
0.00763783 0.269083 -4.18124 209 185 201
0.0137514 0.277068 -4.20121 209 158 179
0.0351025 0.33079 -4.26332 222 123 163
0.038661 0.339744 -4.27368 215 130 168
0.0396645 0.349666 -4.27441 217 132 170
0.0381131 0.360558 -4.26552 220 137 172
0.0391166 0.37048 -4.26626 216 140 173
0.0401201 0.380403 -4.26699 215 140 173
0.0411236 0.390325 -4.26772 206 153 183
0.0446822 0.399279 -4.27807 195 166 193
0.0431307 0.41017 -4.26919 190 170 196
0.0466892 0.419124 -4.27954 170 180 205
0.0451377 0.430015 -4.27065 171 187 210
0.0461412 0.439938 -4.27139 159 188 210
0.0445898 0.450829 -4.2625 159 185 205
0.0455933 0.460751 -4.26323 143 185 203
0.0491518 0.469705 -4.27358 122 189 208
0.0562689 0.487613 -4.29429 124 194 212
0.0678556 0.575946 -4.3105 43 67 65
0.0688591 0.585869 -4.31124 55 73 71
0.0698626 0.595791 -4.31197 51 65 62
0.0683111 0.606683 -4.30308 51 66 62
0.0642046 0.618543 -4.28458 46 64 61
0.159466 0.74727 -4.5945 38 44 39
0.0642843 1.14397 -4.12956 158 159 155
0.0934788 1.38017 -4.16638 166 169 164
0.135818 1.40533 -4.31361 159 162 159
0.14038 1.4242 -4.32469 155 158 155
0.198683 1.65967 -4.46806 182 188 183
0.23135 1.66789 -4.58496 189 198 194
0.190926 1.71413 -4.42363 184 191 187
0.225052 1.76301 -4.53384 187 194 190
0.191289 1.79641 -4.40063 189 195 192
-0.354371 -1.22896 -3.26368 53 84 68
-0.355923 -1.21807 -3.2548 47 76 62
-0.357474 -1.20718 -3.24591 55 83 69
-0.336031 -1.20501 -3.3236 45 80 66
-0.226899 -1.12275 -3.69793 40 32 24
-0.22334 -1.1138 -3.70828 33 24 16
-0.237667 -1.09806 -3.6513 35 30 24
-0.239218 -1.08717 -3.64241 28 24 18
-0.231097 -1.05934 -3.66385 34 24 15
-0.227539 -1.05039 -3.6742 40 30 19
-0.236755 -1.03659 -3.63646 34 28 20
-0.217867 -1.03345 -3.70452 52 36 19
-0.23119 -1.00779 -3.64827 33 25 15
-0.225076 -0.999807 -3.66825 50 36 22
-0.221518 -0.990853 -3.6786 58 39 22
-0.220514 -0.980931 -3.67933 58 39 20
-0.224621 -0.969071 -3.66082 50 37 21
-0.223617 -0.959148 -3.66156 54 38 22
-0.227724 -0.947288 -3.64305 46 36 20
-0.223987 -0.752948 -3.59926 52 31 14
-0.222983 -0.743025 -3.59999 52 29 12
-0.22198 -0.733103 -3.60072 53 30 12
-0.220976 -0.72318 -3.60146 56 30 13
-0.222528 -0.712289 -3.59257 53 29 11
-0.221524 -0.702367 -3.5933 57 31 13
-0.220521 -0.692444 -3.59403 61 32 13
-0.219517 -0.682522 -3.59477 67 35 15
-0.218514 -0.672599 -3.5955 71 38 17
-0.220065 -0.661708 -3.58661 66 35 15
-0.219062 -0.651785 -3.58735 71 38 17
-0.218058 -0.641863 -3.58808 76 41 20
-0.217055 -0.63194 -3.58881 80 44 21
-0.216051 -0.622018 -3.58954 85 47 23
-0.215047 -0.612095 -3.59028 89 49 25
-0.216599 -0.601204 -3.58139 89 49 24
-0.21304 -0.59225 -3.59174 97 53 27
-0.217147 -0.58039 -3.57324 89 50 25
-0.213588 -0.571437 -3.58359 102 56 29
-0.21514 -0.560545 -3.5747 100 56 29
-0.214136 -0.550623 -3.57543 103 58 29
-0.215688 -0.539731 -3.56655 99 58 29
-0.204009 -0.502948 -3.59834 111 61 31
-0.20766 -0.460351 -3.57241 108 57 27
-0.204101 -0.451398 -3.58276 106 56 24
-0.183483 -0.273761 -3.60557 135 81 47
-0.167426 -0.115001 -3.6173 143 92 58
-0.166423 -0.105079 -3.61803 144 94 59
-0.163412 -0.0753114 -3.62023 148 94 63
-0.135492 0.017132 -3.69489 194 164 136
-0.0533688 0.0684169 -3.97972 208 200 174
-0.0421453 0.0744642 -4.01893 186 181 162
-0.0632256 0.154579 -3.91824 120 138 117
-0.0316545 0.204426 -4.01883 104 147 122
-0.025541 0.21241 -4.03881 108 153 131
-0.0219824 0.221364 -4.04916 123 167 153
-0.0133139 0.22838 -4.07875 159 194 186
-0.0046454 0.235396 -4.10834 192 221 216
0.0126917 0.249429 -4.16752 214 222 223
0.0239152 0.255476 -4.20673 230 224 227
0.0274737 0.26443 -4.21709 226 199 210
0.0259222 0.275321 -4.2082 210 159 178
0.0345908 0.282337 -4.23779 212 145 168
0.0355943 0.29226 -4.23852 221 138 166
0.0350463 0.313073 -4.23037 225 129 163
0.0386048 0.322027 -4.24072 226 128 165
0.0447184 0.330012 -4.26069 218 131 168
0.0482769 0.338966 -4.27104 212 140 175
0.0467254 0.349857 -4.26216 213 142 176
0.0477289 0.359779 -4.26289 211 149 181
0.0461775 0.370671 -4.254 213 156 185
0.052291 0.378656 -4.27398 192 178 205
0.0532945 0.388578 -4.27471 191 181 207
0.054298 0.398501 -4.27544 178 183 207
0.0553015 0.408423 -4.27617 160 187 211
0.0563051 0.418346 -4.27691 152 188 211
0.0573086 0.428268 -4.27764 130 189 210
0.0608671 0.437222 -4.28799 116 192 214
0.0618706 0.447144 -4.28872 107 189 210
0.0603192 0.458036 -4.27984 110 190 209
0.0587677 0.468927 -4.27095 109 189 207
0.0770159 0.544432 -4.31529 47 69 69
0.0754644 0.555323 -4.3064 40 62 59
0.0739129 0.566214 -4.29752 33 56 56
0.0723614 0.577106 -4.28863 34 55 55
0.0733649 0.587028 -4.28936 37 56 56
0.143717 0.65308 -4.52683 42 51 47
0.14472 0.663002 -4.52756 42 49 46
0.108211 1.08897 -4.26829 127 124 119
0.0754516 1.1323 -4.13581 138 138 134
0.0713451 1.14416 -4.11731 151 153 149
0.0697937 1.15505 -4.10842 165 168 165
0.143427 1.3847 -4.30951 163 166 163
0.13932 1.39656 -4.291 163 166 162
0.145434 1.40455 -4.31097 162 165 162
0.146437 1.41447 -4.31171 159 163 159
0.142331 1.42633 -4.2932 157 160 157
0.218882 1.7373 -4.48091 184 192 187
0.230106 1.74335 -4.52012 183 190 185
0.228554 1.75424 -4.51124 186 194 189
-0.346307 -1.21885 -3.25216 44 75 61
-0.342749 -1.2099 -3.26252 42 74 60
-0.325411 -1.19586 -3.3217 51 82 70
-0.217283 -1.12353 -3.6953 36 28 20
-0.218834 -1.11264 -3.68641 36 28 20
-0.225496 -1.09981 -3.65828 30 24 19
-0.232157 -1.08698 -3.63016 38 33 26
-0.224037 -1.05915 -3.6516 35 25 16
-0.217923 -1.05117 -3.67157 48 36 24
-0.21692 -1.04124 -3.6723 51 39 25
-0.215916 -1.03132 -3.67303 51 38 24
-0.221574 -1.00857 -3.64564 44 34 21
-0.218015 -0.999617 -3.65599 52 37 23
-0.217012 -0.989694 -3.65673 55 39 22
-0.213453 -0.98074 -3.66708 60 41 22
-0.218293 -0.844966 -3.60927 51 35 17
-0.217289 -0.835044 -3.61 51 34 16
-0.216286 -0.825121 -3.61073 54 35 16
-0.217837 -0.81423 -3.60185 50 32 15
-0.216834 -0.804307 -3.60258 52 31 13
-0.21583 -0.794385 -3.60331 55 31 13
-0.217381 -0.783494 -3.59443 50 30 13
-0.216378 -0.773571 -3.59516 52 29 13
-0.215374 -0.763649 -3.59589 54 30 14
-0.214371 -0.753726 -3.59662 58 30 13
-0.215922 -0.742835 -3.58774 55 30 13
-0.214919 -0.732912 -3.58847 60 34 16
-0.213915 -0.72299 -3.5892 64 35 17
-0.212912 -0.713067 -3.58994 69 38 19
-0.209353 -0.704114 -3.60029 75 41 20
-0.20835 -0.694191 -3.60102 81 43 20
-0.209901 -0.6833 -3.59213 82 45 22
-0.208898 -0.673377 -3.59287 85 46 23
-0.207894 -0.663455 -3.5936 91 50 25
-0.209446 -0.652563 -3.58471 86 48 24
-0.208442 -0.642641 -3.58545 89 50 26
-0.209994 -0.63175 -3.57656 87 47 25
-0.206435 -0.622796 -3.58691 95 52 26
-0.207987 -0.611905 -3.57803 95 53 28
-0.194756 -0.586012 -3.6187 112 61 32
-0.209083 -0.570277 -3.56172 99 56 31
-0.200414 -0.563261 -3.59131 113 61 31
-0.20452 -0.551401 -3.5728 108 61 30
-0.206072 -0.54051 -3.56392 107 60 30
-0.198955 -0.522602 -3.58462 102 53 20
-0.192841 -0.514617 -3.60459 109 59 28
-0.190927 -0.443222 -3.59048 117 66 34
-0.173867 -0.27454 -3.60294 139 85 51
-0.159725 -0.187175 -3.62877 138 85 55
-0.161277 -0.176283 -3.61989 143 88 58
-0.162828 -0.165392 -3.611 134 82 51
-0.161825 -0.15547 -3.61173 134 83 51
-0.160821 -0.145547 -3.61247 137 87 56
-0.156259 -0.126671 -3.62355 139 95 67
-0.155255 -0.116748 -3.62428 136 93 65
-0.154252 -0.106826 -3.62502 142 101 72
-0.153248 -0.0969033 -3.62575 133 89 59
-0.152245 -0.0869808 -3.62648 139 94 63
-0.148686 -0.0780271 -3.63683 137 91 59
-0.143669 -0.0284146 -3.6405 116 64 31
-0.142665 -0.0184921 -3.64123 140 89 57
-0.0258679 0.0608572 -4.04442 209 201 174
-0.0299744 0.0727173 -4.02591 208 200 179
-0.0536098 0.1538 -3.91561 120 136 116
-0.0159251 0.211632 -4.03617 108 156 135
-0.0123666 0.220586 -4.04653 114 158 143
-0.00369805 0.227602 -4.07612 140 177 167
-0.000139531 0.236556 -4.08647 179 213 208
0.0360861 0.253729 -4.21372 227 224 226
0.0421996 0.261714 -4.23369 230 215 221
0.0406481 0.272605 -4.2248 206 171 185
0.0390966 0.283497 -4.21592 209 151 171
0.0503201 0.289544 -4.25513 210 147 170
0.0436587 0.302373 -4.227 214 135 165
0.0497722 0.310358 -4.24697 218 142 172
0.0482207 0.321249 -4.23809 218 135 169
0.0543342 0.329234 -4.25806 209 145 178
0.0578928 0.338188 -4.26841 198 161 190
0.0588963 0.34811 -4.26914 191 162 192
0.0624548 0.357064 -4.2795 172 186 210
0.0609033 0.367955 -4.27061 182 184 209
0.0644618 0.376909 -4.28096 155 191 213
0.0654654 0.386831 -4.2817 148 196 218
0.0639139 0.397723 -4.27281 157 194 215
0.0674724 0.406676 -4.28316 130 192 211
0.0684759 0.416599 -4.28389 124 196 214
0.067928 0.437413 -4.27574 109 189 206
0.0826176 0.503964 -4.30973 47 74 77
0.0836212 0.513886 -4.31046 42 67 68
0.0795147 0.525746 -4.29195 32 57 61
0.0805182 0.535669 -4.29269 34 53 56
0.0815217 0.545591 -4.29342 42 57 58
0.0825253 0.555514 -4.29415 42 55 55
0.160998 0.649395 -4.55305 30 40 34
0.162001 0.659318 -4.55378 39 47 40
0.102952 1.12474 -4.20052 140 137 134
0.130232 1.28954 -4.25145 174 178 174
0.120468 1.32416 -4.20555 170 173 169
0.141364 1.34714 -4.27509 171 174 171
0.142367 1.35706 -4.27582 168 171 168
0.145926 1.36602 -4.28617 168 171 168
0.146929 1.37594 -4.2869 166 169 166
0.150488 1.38489 -4.29726 164 167 164
0.143826 1.39772 -4.26913 163 166 161
0.142275 1.40861 -4.26024 163 166 162
0.156053 1.41369 -4.30907 162 166 162
0.149392 1.42652 -4.28095 158 161 158
0.133329 1.55625 -4.18393 169 175 170
0.236348 1.63052 -4.53829 191 201 197
0.224939 1.72757 -4.46793 184 191 187
0.223388 1.73846 -4.45904 189 196 192
0.232056 1.74548 -4.48863 184 192 188
0.23817 1.75346 -4.5086 187 194 190
-0.355481 -1.56281 -3.28233 19 23 22
-0.3637 -1.2506 -3.16003 64 80 70
-0.361693 -1.23075 -3.16149 66 85 73
-0.214328 -1.11148 -3.66454 38 30 24
-0.22099 -1.09865 -3.63641 42 37 31
-0.222541 -1.08776 -3.62753 35 30 25
-0.209311 -1.06187 -3.6682 53 40 28
-0.210862 -1.05098 -3.65932 50 38 26
-0.212414 -1.04008 -3.65043 51 40 26
-0.20119 -1.03404 -3.68964 57 38 18
-0.202742 -1.02315 -3.68075 61 41 21
-0.209403 -1.01032 -3.65263 60 42 28
-0.210955 -0.999426 -3.64374 56 40 25
-0.207396 -0.990472 -3.65409 61 40 22
-0.211503 -0.978612 -3.63559 52 38 22
-0.209132 -0.876481 -3.61406 54 35 18
-0.20968 -0.855667 -3.6059 53 35 16
-0.208677 -0.845744 -3.60664 54 34 14
-0.207673 -0.835822 -3.60737 55 33 12
-0.209225 -0.82493 -3.59848 50 30 10
-0.208221 -0.815008 -3.59921 53 30 11
-0.209773 -0.804117 -3.59033 52 30 12
-0.208769 -0.794194 -3.59106 56 31 12
-0.207766 -0.784272 -3.59179 58 31 10
-0.206762 -0.774349 -3.59253 62 34 13
-0.205759 -0.764427 -3.59326 66 36 16
-0.204755 -0.754504 -3.59399 74 40 19
-0.203752 -0.744582 -3.59472 77 43 22
-0.205303 -0.73369 -3.58584 74 42 22
-0.204299 -0.723768 -3.58657 77 44 23
-0.200741 -0.714814 -3.59692 84 45 23
-0.199737 -0.704892 -3.59766 89 47 23
-0.196179 -0.695938 -3.60801 91 47 21
-0.20284 -0.683109 -3.57988 86 47 24
-0.196727 -0.675124 -3.59985 95 49 23
-0.198278 -0.664233 -3.59097 98 53 25
-0.19983 -0.653342 -3.58208 96 53 27
-0.198826 -0.643419 -3.58281 96 52 26
-0.200378 -0.632528 -3.57393 96 53 28
-0.199374 -0.622605 -3.57466 98 54 28
-0.196364 -0.592838 -3.57686 97 48 21
-0.184137 -0.576868 -3.6168 118 66 34
-0.193353 -0.56307 -3.57906 115 63 33
-0.192898 -0.532334 -3.57164 111 61 30
-0.191894 -0.522411 -3.57237 104 55 22
-0.183226 -0.515395 -3.60196 110 59 27
-0.164251 -0.275318 -3.60031 139 85 51
-0.163247 -0.265395 -3.60104 134 81 47
-0.159689 -0.256441 -3.61139 135 80 46
-0.158685 -0.246519 -3.61213 136 81 47
-0.156678 -0.226674 -3.61359 132 77 44
-0.155675 -0.216751 -3.61432 131 77 46
-0.154671 -0.206829 -3.61506 131 79 49
-0.153668 -0.196906 -3.61579 137 84 55
-0.152664 -0.186984 -3.61652 140 88 59
-0.149106 -0.17803 -3.62687 143 96 69
-0.150657 -0.167139 -3.61799 144 96 71
-0.149654 -0.157216 -3.61872 148 102 76
-0.161425 -0.14245 -3.57136 134 86 57
-0.160422 -0.132527 -3.57209 134 88 59
-0.138978 -0.130355 -3.64978 194 170 152
-0.14053 -0.119464 -3.64089 198 172 153
-0.142081 -0.108573 -3.632 186 156 133
-0.143633 -0.0976814 -3.62312 184 147 120
-0.145184 -0.0867901 -3.61423 156 114 87
-0.139071 -0.0788052 -3.6342 126 85 57
-0.138067 -0.0688827 -3.63493 109 62 31
-0.137063 -0.0589602 -3.63567 104 55 24
-0.126936 -0.0112853 -3.65857 151 100 71
-0.128487 -0.000394012 -3.64968 148 101 73
-0.0932653 0.00685663 -3.7762 187 150 117
-0.0162521 0.0600791 -4.04179 208 198 171
-0.0280236 0.0748456 -3.99442 205 195 169
-0.02191 0.0828305 -4.0144 192 187 166
-0.0266569 0.167055 -3.97216 105 126 104
-0.00375423 0.209885 -4.04316 109 154 132
0.00235929 0.21787 -4.06313 117 159 142
0.00591781 0.226824 -4.07348 119 158 145
0.0196963 0.231903 -4.12231 161 195 184
0.0492604 0.261905 -4.22144 225 216 220
0.060484 0.267952 -4.26065 203 185 191
0.0563775 0.279812 -4.24214 202 163 178
0.062491 0.287797 -4.26212 197 163 180
0.0660495 0.296751 -4.27247 195 168 186
0.0644981 0.307642 -4.26358 195 161 184
0.0655016 0.317564 -4.26431 188 162 186
0.0690601 0.326518 -4.27467 174 180 202
0.0700636 0.336441 -4.2754 166 185 207
0.0710672 0.346363 -4.27613 155 186 207
0.0746257 0.355317 -4.28648 138 194 211
0.0730742 0.366208 -4.2776 142 196 213
0.0776362 0.385084 -4.28868 128 199 213
0.0811948 0.394038 -4.29903 129 199 212
0.0719783 0.407836 -4.26129 125 188 205
0.0755368 0.416789 -4.27164 106 187 199
0.0739853 0.427681 -4.26276 106 185 197
0.0749888 0.437603 -4.26349 104 183 195
0.088675 0.494232 -4.29674 43 71 71
0.0896785 0.504154 -4.29748 35 59 59
0.088127 0.515046 -4.28859 32 53 53
0.0891306 0.524968 -4.28932 37 54 54
0.111017 1.13485 -4.189 147 147 143
0.150979 1.34636 -4.27245 173 176 173
0.145321 1.36912 -4.24506 167 171 167
0.14888 1.37807 -4.25541 166 170 166
0.152438 1.38702 -4.26577 167 170 166
0.153442 1.39695 -4.2665 165 168 164
0.157001 1.4059 -4.27685 163 166 161
0.175889 1.40904 -4.34492 162 166 163
0.149791 1.43954 -4.24057 159 162 159
0.177711 1.53198 -4.31524 159 165 161
0.234555 1.72679 -4.4653 183 191 186
0.241672 1.7447 -4.486 186 194 189
0.256454 1.7597 -4.53556 185 192 188
-0.202157 -1.11323 -3.67153 36 28 19
-0.211374 -1.09943 -3.63378 42 36 31
-0.210918 -1.06869 -3.62636 32 22 14
-0.20736 -1.05974 -3.63671 44 34 23
-0.206356 -1.04982 -3.63745 50 38 26
-0.20052 -0.887181 -3.61069 56 34 15
-0.198513 -0.867336 -3.61216 61 35 14
-0.200064 -0.856445 -3.60327 58 32 12
-0.201616 -0.845554 -3.59438 55 32 12
-0.198057 -0.8366 -3.60474 66 37 14
-0.199609 -0.825709 -3.59585 64 37 14
-0.198605 -0.815786 -3.59658 65 37 14
-0.197602 -0.805864 -3.59732 72 40 17
-0.196598 -0.795941 -3.59805 81 45 21
-0.19815 -0.78505 -3.58916 74 41 19
-0.197146 -0.775127 -3.58989 78 44 22
-0.193588 -0.766174 -3.60025 87 48 23
-0.197694 -0.754313 -3.58174 78 44 23
-0.196691 -0.744391 -3.58247 81 45 24
-0.195687 -0.734468 -3.58321 81 45 23
-0.187019 -0.727452 -3.6128 91 46 19
-0.18857 -0.716561 -3.60391 90 45 17
-0.190122 -0.70567 -3.59502 90 46 18
-0.189666 -0.674933 -3.5876 96 50 21
-0.186107 -0.66598 -3.59795 102 54 25
-0.182549 -0.657026 -3.60831 107 57 29
-0.186655 -0.645166 -3.5898 107 58 29
-0.179083 -0.596522 -3.60308 108 57 28
-0.148522 -0.268111 -3.61765 143 90 57
-0.152628 -0.256251 -3.59914 138 85 51
-0.151625 -0.246328 -3.59987 140 87 53
-0.141952 -0.22939 -3.6302 138 92 66
-0.143504 -0.218498 -3.62131 136 87 59
-0.1425 -0.208576 -3.62204 134 89 63
-0.141497 -0.198653 -3.62278 134 90 65
-0.143048 -0.187762 -3.61389 144 99 74
-0.13949 -0.178808 -3.62424 139 100 78
-0.138486 -0.168886 -3.62497 137 102 83
-0.137483 -0.158963 -3.62571 163 131 113
-0.136479 -0.149041 -3.62644 168 138 120
-0.132921 -0.140087 -3.63679 209 188 173
-0.131917 -0.130165 -3.63752 215 197 184
-0.133469 -0.119273 -3.62864 224 201 185
-0.132465 -0.109351 -3.62937 229 207 189
-0.131462 -0.0994283 -3.6301 233 208 188
-0.130458 -0.0895058 -3.63084 182 153 130
-0.129455 -0.0795833 -3.63157 134 100 74
-0.128451 -0.0696608 -3.6323 121 79 51
-0.118871 -0.00117212 -3.64705 148 100 71
-0.120423 0.00971918 -3.63816 160 117 89
-0.0954209 0.020845 -3.7262 198 169 143
-0.0270762 0.0670514 -3.9622 209 194 162
-0.000522675 0.0672859 -4.05913 210 201 176
-0.00718416 0.0801148 -4.031 210 204 182
0.00942016 0.218061 -4.05088 112 154 135
0.0180887 0.225077 -4.08047 117 160 142
0.0165372 0.235968 -4.07158 149 189 180
0.0665413 0.25822 -4.24767 207 206 206
0.0675448 0.268143 -4.2484 206 194 198
0.0721069 0.287019 -4.25948 194 176 189
0.0756654 0.295973 -4.26984 178 183 193
0.0792239 0.304926 -4.28019 160 188 196
0.0776725 0.315818 -4.2713 166 187 201
0.081231 0.324771 -4.28165 141 184 196
0.0842415 0.354539 -4.28385 120 193 205
0.0852451 0.364461 -4.28458 117 194 204
0.0836936 0.375353 -4.2757 114 194 203
0.0795871 0.387213 -4.25719 126 189 202
0.0805906 0.397135 -4.25792 118 186 198
0.0841492 0.406089 -4.26828 102 180 189
0.0983832 0.441904 -4.30969 46 73 70
0.0952803 0.463686 -4.29191 35 66 63
0.0962838 0.473609 -4.29264 37 64 62
0.112617 0.477718 -4.35109 50 56 49
0.128951 0.481828 -4.40954 47 47 45
0.117179 0.496595 -4.36218 40 44 39
0.019073 1.10046 -3.82532 160 170 158
0.118989 1.19651 -4.1619 174 181 176
0.159592 1.33566 -4.26909 177 181 178
0.160595 1.34559 -4.26982 173 177 174
0.159499 1.38721 -4.25351 164 168 164
0.160503 1.39714 -4.25425 165 168 165
0.185505 1.40826 -4.34229 165 169 166
0.155848 1.42981 -4.22759 162 165 161
0.181854 1.45086 -4.31636 159 162 159
0.168531 1.47652 -4.26011 154 159 155
0.232314 1.50385 -4.48502 170 177 174
0.183221 1.54307 -4.2941 167 174 169
0.181484 1.65706 -4.25406 174 180 175
0.246726 1.72505 -4.47228 183 190 186
0.257402 1.75191 -4.50334 185 193 188
-0.298756 -1.11494 -3.28119 36 40 37
-0.19099 -1.1249 -3.67778 44 36 25
-0.201758 -1.10021 -3.63115 40 33 27
-0.185972 -1.07528 -3.68144 62 44 27
-0.197744 -1.06052 -3.63408 53 41 30
-0.19674 -1.05059 -3.63481 53 40 26
-0.19647 -0.916758 -3.59624 51 33 15
-0.195466 -0.906836 -3.59697 49 31 12
-0.194463 -0.896913 -3.59771 52 30 12
-0.193459 -0.886991 -3.59844 56 31 12
-0.192456 -0.877068 -3.59917 58 33 13
-0.194007 -0.866177 -3.59029 56 33 13
-0.193004 -0.856254 -3.59102 63 36 16
-0.192 -0.846332 -3.59175 66 39 16
-0.190996 -0.836409 -3.59248 75 45 20
-0.187438 -0.827456 -3.60284 84 46 21
-0.186434 -0.817533 -3.60357 88 49 22
-0.187986 -0.806642 -3.59468 86 49 23
-0.186982 -0.796719 -3.59542 89 50 23
-0.185979 -0.786797 -3.59615 92 51 24
-0.184975 -0.776874 -3.59688 93 51 24
-0.189082 -0.765014 -3.57838 90 51 24
-0.186619 -0.714433 -3.57242 87 46 21
-0.183061 -0.705479 -3.58277 93 48 19
-0.182057 -0.695557 -3.5835 94 49 19
-0.178499 -0.686603 -3.59386 100 52 20
-0.18005 -0.675712 -3.58497 99 51 20
-0.176492 -0.666758 -3.59532 104 54 22
-0.147937 -0.358192 -3.60842 128 74 39
-0.144379 -0.349238 -3.61877 126 72 38
-0.143375 -0.339315 -3.6195 135 82 49
-0.141368 -0.31947 -3.62097 138 85 53
-0.14292 -0.308579 -3.61208 133 80 48
-0.141916 -0.298656 -3.61282 133 82 50
-0.135803 -0.290672 -3.63279 143 96 65
-0.134799 -0.280749 -3.63352 143 98 69
-0.138906 -0.268889 -3.61501 139 90 59
-0.137902 -0.258966 -3.61575 142 93 63
-0.136899 -0.249044 -3.61648 144 96 68
-0.146115 -0.235246 -3.57873 133 86 56
-0.132337 -0.230168 -3.62756 136 100 77
-0.133888 -0.219276 -3.61868 135 93 70
-0.127775 -0.211292 -3.63865 190 164 147
-0.129326 -0.2004 -3.62976 193 166 149
-0.128323 -0.190478 -3.6305 207 183 167
-0.127319 -0.180555 -3.63123 215 192 178
-0.126315 -0.170633 -3.63196 221 202 190
-0.125312 -0.16071 -3.63269 221 207 196
-0.124308 -0.150788 -3.63343 219 207 198
-0.123305 -0.140865 -3.63416 217 207 198
-0.122301 -0.130943 -3.63489 212 205 196
-0.123853 -0.120051 -3.62601 219 209 199
-0.120294 -0.111098 -3.63636 215 206 195
-0.121846 -0.100206 -3.62747 227 211 196
-0.123397 -0.0893152 -3.61858 210 186 165
-0.11628 -0.0714077 -3.63929 125 88 62
-0.115277 -0.0614852 -3.64002 111 66 37
-0.112814 -0.0109039 -3.63407 133 84 54
-0.0990356 -0.00582542 -3.6829 153 108 81
-0.0484835 -0.00438756 -3.86713 205 182 158
0.00754171 0.0773991 -4.04761 213 207 186
0.00343523 0.0892592 -4.0291 189 184 165
0.029256 0.213408 -4.08673 114 159 135
0.0277046 0.224299 -4.07784 117 160 141
0.0287081 0.234222 -4.07857 130 172 158
0.0878363 0.294226 -4.27682 164 191 193
0.0923983 0.313102 -4.28791 144 197 200
0.102434 0.412327 -4.29524 38 74 75
0.103437 0.422249 -4.29597 36 71 69
-0.0243258 1.04766 -3.6444 156 154 143
-0.00817701 1.15487 -3.6717 163 165 154
0.128605 1.19574 -4.15927 172 179 175
0.168844 1.2526 -4.28945 178 186 181
0.175961 1.27051 -4.31016 181 188 183
0.162091 1.31698 -4.24575 186 191 187
0.165649 1.32593 -4.2561 181 185 182
0.166653 1.33585 -4.25684 175 180 176
0.177784 1.39345 -4.28047 167 171 168
0.171122 1.40628 -4.25235 162 166 162
0.195121 1.40748 -4.33965 165 169 166
0.183349 1.42225 -4.29229 158 162 159
0.171578 1.43702 -4.24493 156 160 156
0.175136 1.44597 -4.25528 160 163 160
0.17103 1.45783 -4.23677 160 163 159
0.12294 1.50697 -4.04658 169 172 168
0.244485 1.5021 -4.49201 169 175 172
0.248043 1.51105 -4.50236 168 175 171
0.177414 1.59965 -4.21817 177 183 180
0.178873 1.64031 -4.21148 177 180 176
0.184987 1.6483 -4.23146 177 181 177
0.18599 1.65822 -4.23219 182 186 181
0.192104 1.6662 -4.25216 180 183 179
0.273131 1.75912 -4.52068 187 196 191
-0.205089 -1.57001 -3.71986 36 49 43
-0.294521 -1.24762 -3.29789 54 73 63
-0.287133 -1.09588 -3.28002 44 52 55
-0.188036 -1.11285 -3.64702 46 39 31
-0.189587 -1.10195 -3.63814 37 29 22
-0.193238 -1.05936 -3.61221 44 33 23
-0.18968 -1.0504 -3.62256 52 39 25
-0.186761 -0.969086 -3.60918 52 33 13
-0.188313 -0.958195 -3.6003 51 32 15
-0.189864 -0.947304 -3.59141 45 30 12
-0.183751 -0.939319 -3.61138 62 33 13
-0.185302 -0.928427 -3.6025 58 31 12
-0.184299 -0.918505 -3.60323 63 35 14
-0.18585 -0.907614 -3.59434 58 33 13
-0.184847 -0.897691 -3.59507 63 36 14
-0.183843 -0.887769 -3.59581 70 40 18
-0.18284 -0.877846 -3.59654 74 42 19
-0.181836 -0.867924 -3.59727 83 47 22
-0.180833 -0.858001 -3.59801 83 46 21
-0.179829 -0.848079 -3.59874 86 47 21
-0.178826 -0.838156 -3.59947 91 50 23
-0.177822 -0.828234 -3.6002 94 51 23
-0.179374 -0.817342 -3.59132 91 52 24
-0.17837 -0.80742 -3.59205 94 53 24
-0.177367 -0.797497 -3.59278 96 53 23
-0.178918 -0.786606 -3.5839 94 52 23
-0.175359 -0.777652 -3.59425 101 55 24
-0.173352 -0.757807 -3.59571 96 50 20
-0.169794 -0.748854 -3.60607 102 54 24
-0.16879 -0.738931 -3.6068 105 57 26
-0.172897 -0.727071 -3.58829 100 53 23
-0.171893 -0.717148 -3.58903 105 58 27
-0.176 -0.705288 -3.57052 97 53 22
-0.172441 -0.696335 -3.58087 104 57 25
-0.171438 -0.686412 -3.5816 105 57 24
-0.170434 -0.67649 -3.58234 105 57 24
-0.169431 -0.666567 -3.58307 106 56 24
-0.156385 -0.537575 -3.5926 114 61 27
-0.135767 -0.359938 -3.61541 130 79 45
-0.130201 -0.33114 -3.62722 136 88 60
-0.131752 -0.320248 -3.61834 136 88 59
-0.130749 -0.310326 -3.61907 141 93 65
-0.129745 -0.300403 -3.6198 132 88 61
-0.126187 -0.29145 -3.63015 138 99 74
-0.127738 -0.280558 -3.62127 135 95 69
-0.125731 -0.260713 -3.62273 129 92 69
-0.122173 -0.25176 -3.63309 177 150 133
-0.123724 -0.240868 -3.6242 176 148 130
-0.120166 -0.231915 -3.63455 203 182 167
-0.119162 -0.221992 -3.63528 212 195 182
-0.118159 -0.21207 -3.63602 216 201 189
-0.11971 -0.201178 -3.62713 219 204 193
-0.118707 -0.191256 -3.62786 222 207 197
-0.115148 -0.182302 -3.63822 212 206 198
-0.114145 -0.17238 -3.63895 213 209 202
-0.115696 -0.161488 -3.63006 214 208 202
-0.114693 -0.151566 -3.63079 213 209 202
-0.113689 -0.141643 -3.63153 211 208 202
-0.112686 -0.131721 -3.63226 210 209 203
-0.114237 -0.12083 -3.62337 211 208 201
-0.109675 -0.101953 -3.63446 218 210 200
-0.108671 -0.0920309 -3.63519 209 194 181
-0.110223 -0.0811396 -3.6263 159 136 116
-0.104109 -0.0731546 -3.64628 134 99 76
-0.105661 -0.0622633 -3.63739 114 71 43
-0.0965368 -0.0245109 -3.65956 125 72 44
-0.0929783 -0.0155572 -3.66991 141 89 62
-0.0919747 -0.00563473 -3.67064 162 113 85
-0.0404191 0.00572563 -3.85561 204 180 154
-0.0828506 0.0321177 -3.69281 216 195 171
0.0222676 0.0746834 -4.06421 208 202 177
0.0347654 0.22449 -4.06559 116 160 139
0.0434339 0.231506 -4.09518 122 163 146
0.0908831 0.254726 -4.26164 174 176 170
0.11059 0.37089 -4.29929 32 68 71
0.111594 0.380812 -4.30002 32 66 68
0.112597 0.390735 -4.30076 34 63 62
0.111046 0.401626 -4.29187 35 64 63
-0.000112625 1.16499 -3.66019 168 175 161
0.177457 1.2419 -4.28609 183 191 186
0.17846 1.25182 -4.28682 183 191 186
0.183022 1.2707 -4.29791 181 189 185
0.176268 1.33508 -4.2542 172 177 173
0.179827 1.34403 -4.26456 169 173 169
0.172525 1.42922 -4.2127 164 168 163
0.170974 1.44011 -4.20382 162 166 161
0.179642 1.44713 -4.23341 159 163 159
0.249994 1.51318 -4.47087 173 180 177
0.258662 1.5202 -4.50046 170 177 173
0.18703 1.59887 -4.21554 175 181 179
0.192048 1.64849 -4.2192 180 184 180
0.198161 1.65647 -4.23918 178 183 178
0.20172 1.66542 -4.24953 181 185 181
0.290597 1.65233 -4.57805 185 195 190
0.293607 1.6821 -4.58025 195 205 200
0.27563 1.74043 -4.49734 181 188 184
0.285302 1.75737 -4.52767 185 193 188
0.256649 1.78884 -4.4137 189 196 194
-0.303239 -1.56084 -3.32063 29 37 35
-0.314654 -1.1753 -3.16498 41 64 54
-0.180612 -1.03037 -3.61177 48 32 14
-0.18116 -1.00955 -3.60362 49 29 12
-0.182711 -0.998663 -3.59473 51 32 16
-0.176598 -0.990678 -3.61471 64 34 14
-0.175594 -0.980756 -3.61544 64 34 15
-0.179701 -0.968896 -3.59693 56 33 14
-0.178697 -0.958973 -3.59767 61 35 16
-0.177693 -0.949051 -3.5984 67 39 18
-0.17669 -0.939128 -3.59913 69 39 18
-0.175686 -0.929206 -3.59986 73 40 18
-0.174683 -0.919283 -3.6006 79 44 21
-0.173679 -0.909361 -3.60133 84 48 23
-0.175231 -0.898469 -3.59244 83 47 23
-0.171672 -0.889516 -3.60279 88 49 23
-0.173224 -0.878624 -3.59391 89 51 24
-0.17222 -0.868702 -3.59464 92 50 23
-0.171217 -0.858779 -3.59537 92 50 22
-0.170213 -0.848857 -3.59611 94 51 22
-0.1641 -0.840872 -3.61608 103 56 25
-0.165651 -0.829981 -3.60719 104 56 25
-0.164648 -0.820058 -3.60792 104 56 25
-0.163644 -0.810136 -3.60866 106 59 26
-0.162641 -0.800213 -3.60939 107 59 26
-0.159082 -0.791259 -3.61974 109 60 30
-0.168299 -0.777462 -3.582 103 57 25
-0.16474 -0.768508 -3.59235 107 59 27
-0.162733 -0.748663 -3.59381 104 56 24
-0.16173 -0.73874 -3.59455 106 58 25
-0.158171 -0.729787 -3.6049 115 65 33
-0.157167 -0.719864 -3.60563 117 66 34
-0.158719 -0.708973 -3.59675 116 66 33
-0.147495 -0.702926 -3.63596 119 68 36
-0.159267 -0.688159 -3.58859 116 66 32
-0.163373 -0.676299 -3.57009 110 63 28
-0.159815 -0.667345 -3.58044 111 61 27
-0.156256 -0.658392 -3.59079 108 57 25
-0.146221 -0.559167 -3.59812 126 74 37
-0.128613 -0.411298 -3.61873 136 83 49
-0.127154 -0.370639 -3.61204 133 84 51
-0.122592 -0.351763 -3.62313 131 85 57
-0.124144 -0.340872 -3.61424 135 89 61
-0.120585 -0.331918 -3.62459 126 86 60
-0.119582 -0.321995 -3.62532 125 85 61
-0.116023 -0.313042 -3.63568 160 131 111
-0.117575 -0.30215 -3.62679 160 130 110
-0.116571 -0.292228 -3.62752 157 128 109
-0.113012 -0.283274 -3.63787 201 180 164
-0.114564 -0.272383 -3.62899 199 175 159
-0.11356 -0.26246 -3.62972 216 197 183
-0.112557 -0.252538 -3.63045 224 207 195
-0.108998 -0.243584 -3.64081 216 205 195
-0.11055 -0.232693 -3.63192 218 206 195
-0.109546 -0.22277 -3.63265 214 205 196
-0.108543 -0.212848 -3.63338 211 204 196
-0.110094 -0.201956 -3.6245 215 206 199
-0.10307 -0.132499 -3.62963 210 211 207
-0.0975041 -0.1037 -3.64145 212 208 202
-0.0965006 -0.0937778 -3.64218 212 199 188
-0.103162 -0.0809489 -3.61405 181 158 139
-0.0919385 -0.0749016 -3.65326 136 103 81
-0.085825 -0.0669166 -3.67323 140 98 72
-0.0899315 -0.0550566 -3.65473 125 77 47
-0.0808074 -0.0173041 -3.6769 130 78 50
-0.0369168 -0.00303739 -3.83301 202 173 147
-0.0384683 0.00785391 -3.82412 200 170 143
0.0293285 0.0748741 -4.05196 207 199 173
0.030332 0.0847966 -4.0527 209 204 182
0.0494913 0.221774 -4.08219 111 154 133
0.0504948 0.231697 -4.08293 121 160 142
0.119203 0.360189 -4.29593 31 58 57
0.12329 1.21379 -4.05854 172 178 170
0.184518 1.24209 -4.27384 179 187 183
0.188076 1.25104 -4.28419 185 193 189
0.192638 1.26992 -4.29527 188 197 193
0.193642 1.27984 -4.29601 188 197 193
0.185884 1.3343 -4.25157 172 177 174
0.188895 1.36407 -4.25377 179 183 180
0.189898 1.37399 -4.2545 175 180 176
0.193457 1.38294 -4.26486 170 175 171
0.200026 1.42166 -4.27741 165 169 167
0.188255 1.43643 -4.23004 159 163 159
0.196923 1.44345 -4.25963 163 166 163
0.305778 1.68035 -4.58724 193 204 199
0.306782 1.69027 -4.58797 197 207 203
0.286249 1.74957 -4.49544 185 193 188
0.294918 1.75659 -4.52503 187 195 190
-0.287608 -1.2136 -3.2371 59 81 72
-0.286605 -1.20367 -3.23783 61 84 76
-0.171544 -1.01033 -3.60099 59 34 14
-0.17054 -1.00041 -3.60172 64 35 16
-0.169537 -0.990487 -3.60245 68 38 18
-0.171088 -0.979596 -3.59357 65 37 18
-0.170085 -0.969674 -3.5943 69 40 19
-0.166526 -0.96072 -3.60465 84 45 23
-0.165523 -0.950797 -3.60538 84 46 23
-0.164519 -0.940875 -3.60612 88 47 23
-0.160961 -0.931921 -3.61647 94 50 24
-0.165067 -0.920061 -3.59796 89 50 24
-0.161509 -0.911107 -3.60832 96 53 25
-0.160505 -0.901185 -3.60905 98 54 25
-0.164611 -0.889325 -3.59054 95 54 26
-0.163608 -0.879402 -3.59128 97 55 26
-0.162604 -0.86948 -3.59201 99 54 24
-0.159046 -0.860526 -3.60236 103 56 26
-0.152932 -0.852541 -3.62233 108 59 27
-0.159594 -0.839712 -3.59421 105 57 26
-0.15859 -0.82979 -3.59494 106 57 26
-0.157587 -0.819867 -3.59567 107 58 26
-0.151473 -0.811882 -3.61564 110 62 28
-0.147915 -0.802929 -3.626 114 64 33
-0.149466 -0.792037 -3.61711 114 64 33
-0.151018 -0.781146 -3.60822 113 63 30
-0.157679 -0.768317 -3.5801 108 61 27
-0.156676 -0.758395 -3.58083 107 59 26
-0.155672 -0.748472 -3.58156 107 59 25
-0.149559 -0.740487 -3.60153 113 63 29
-0.118449 -0.43289 -3.62425 132 81 47
-0.115439 -0.403122 -3.62645 134 90 62
-0.114435 -0.3932 -3.62718 128 85 58
-0.115987 -0.382308 -3.6183 130 88 61
-0.114983 -0.372386 -3.61903 132 93 67
-0.111425 -0.363432 -3.62938 135 101 78
-0.110421 -0.35351 -3.63011 137 103 81
-0.111973 -0.342618 -3.62123 140 105 83
-0.110969 -0.332696 -3.62196 144 111 90
-0.104856 -0.324711 -3.64193 199 181 166
-0.106407 -0.31382 -3.63304 207 188 173
-0.105404 -0.303897 -3.63378 214 198 185
-0.1044 -0.293975 -3.63451 214 200 188
-0.103397 -0.284052 -3.63524 216 202 190
-0.102393 -0.27413 -3.63598 214 204 193
-0.1065 -0.26227 -3.61747 217 202 190
-0.100386 -0.254285 -3.63744 213 206 199
-0.096372 -0.214595 -3.64037 209 207 202
-0.0953684 -0.204672 -3.6411 207 205 200
-0.0969199 -0.193781 -3.63222 209 207 203
-0.0933614 -0.184827 -3.64257 205 205 200
-0.0949129 -0.173936 -3.63368 204 203 199
-0.0913544 -0.164982 -3.64404 196 197 193
-0.0877958 -0.156028 -3.65439 205 205 200
-0.0867923 -0.146106 -3.65512 211 211 206
-0.0843297 -0.0955247 -3.64917 212 202 195
-0.0884362 -0.0836646 -3.63066 202 183 168
-0.0797676 -0.0766485 -3.66025 136 105 84
-0.0787641 -0.066726 -3.66098 145 104 77
-0.077305 -0.0260672 -3.65429 128 76 47
-0.0737465 -0.0171134 -3.66465 114 62 34
0.0425028 0.0830497 -4.05968 212 208 183
0.0409514 0.093941 -4.0508 201 199 175
0.0677757 0.228012 -4.10915 119 159 141
0.0713342 0.236966 -4.1195 124 160 146
0.269509 1.06849 -4.59762 117 133 113
0.268961 1.0893 -4.58947 134 146 129
0.194133 1.24131 -4.2712 178 186 183
0.197692 1.25026 -4.28156 182 190 186
0.196141 1.26116 -4.27267 184 193 189
0.204261 1.28899 -4.29411 193 202 199
0.19249 1.30375 -4.24674 190 196 193
0.193493 1.31367 -4.24747 184 189 187
0.209827 1.31778 -4.30592 191 198 195
0.21083 1.32771 -4.30666 189 196 193
0.201066 1.36232 -4.26076 174 179 176
0.189294 1.37708 -4.21339 173 178 174
0.203073 1.38216 -4.26222 169 175 171
0.20508 1.40201 -4.26369 166 171 168
0.206083 1.41193 -4.26442 170 175 172
0.207087 1.42185 -4.26515 170 175 173
0.20298 1.43371 -4.24665 166 170 167
0.201429 1.4446 -4.23776 162 166 163
0.215663 1.48042 -4.27917 157 162 159
0.209365 1.57553 -4.22805 182 189 184
0.321508 1.68756 -4.60458 189 199 194
0.301979 1.75678 -4.51278 188 196 191
-0.311201 -1.49027 -3.19471 25 29 26
-0.364401 -1.43919 -2.98528 27 25 23
-0.297792 -1.27899 -3.18124 34 59 50
-0.271331 -1.2272 -3.2626 53 71 60
-0.267772 -1.21825 -3.27295 60 79 69
-0.162291 -1.0934 -3.62135 39 32 23
-0.162383 -1.04185 -3.60578 58 38 20
-0.16138 -1.03192 -3.60651 63 38 17
-0.157821 -1.02297 -3.61686 73 41 15
-0.161928 -1.01111 -3.59836 75 43 21
-0.160924 -1.00119 -3.59909 78 43 20
-0.157366 -0.992234 -3.60944 87 45 21
-0.158917 -0.981343 -3.60055 86 47 24
-0.157914 -0.971421 -3.60129 88 47 22
-0.15691 -0.961498 -3.60202 92 49 25
-0.153352 -0.952544 -3.61237 98 51 25
-0.157458 -0.940684 -3.59387 92 50 24
-0.1539 -0.931731 -3.60422 99 53 26
-0.152896 -0.921808 -3.60495 101 55 26
-0.151893 -0.911886 -3.60568 104 57 28
-0.150889 -0.901963 -3.60642 105 58 27
-0.149886 -0.892041 -3.60715 105 57 25
-0.148882 -0.882118 -3.60788 106 58 26
-0.147879 -0.872196 -3.60861 107 58 26
-0.146875 -0.862273 -3.60935 110 60 28
-0.148427 -0.851382 -3.60046 108 59 26
-0.147423 -0.841459 -3.60119 110 60 27
-0.146419 -0.831537 -3.60193 111 61 29
-0.147971 -0.820645 -3.59304 112 62 28
-0.144412 -0.811692 -3.60339 113 63 29
-0.143409 -0.801769 -3.60412 114 63 30
-0.13985 -0.792816 -3.61448 118 67 34
-0.138847 -0.782893 -3.61521 118 67 35
-0.145508 -0.770064 -3.58708 115 65 32
-0.139395 -0.762079 -3.60706 116 66 33
-0.146056 -0.74925 -3.57893 113 63 29
-0.142498 -0.740297 -3.58928 111 62 26
-0.141494 -0.730374 -3.59002 112 63 27
-0.137936 -0.72142 -3.60037 114 63 27
-0.113851 -0.48328 -3.61795 124 74 40
-0.109289 -0.464404 -3.62904 128 83 52
-0.108286 -0.454482 -3.62977 130 88 57
-0.107282 -0.444559 -3.6305 125 83 53
-0.108834 -0.433668 -3.62162 132 88 57
-0.10783 -0.423745 -3.62235 124 84 58
-0.100257 -0.375102 -3.63563 195 173 157
-0.101809 -0.36421 -3.62675 201 177 160
-0.100805 -0.354288 -3.62748 216 196 180
-0.0998019 -0.344365 -3.62821 215 196 182
-0.0987984 -0.334443 -3.62895 217 202 190
-0.0977948 -0.32452 -3.62968 212 200 188
-0.0967913 -0.314598 -3.63041 211 202 190
-0.0957878 -0.304675 -3.63114 210 201 192
-0.0947843 -0.294753 -3.63188 206 200 191
-0.0937808 -0.28483 -3.63261 210 205 198
-0.0927772 -0.274908 -3.63334 207 204 198
-0.0897667 -0.24514 -3.63554 209 208 204
-0.0746214 -0.147853 -3.66211 209 209 206
-0.0787279 -0.135993 -3.6436 207 209 205
-0.0747138 -0.0963028 -3.64653 216 209 202
-0.0762653 -0.0854115 -3.63765 208 191 178
-0.0778168 -0.0745202 -3.62876 168 141 119
-0.0691483 -0.0675041 -3.65835 140 101 74
0.0480122 0.0941317 -4.03854 204 199 173
0.0799466 0.226265 -4.11614 116 157 138
0.0809501 0.236188 -4.11687 122 159 143
-0.0356688 0.342225 -3.65954 172 174 166
0.217541 0.668637 -4.48799 24 26 17
0.218544 0.67856 -4.48873 28 29 19
0.283053 0.870463 -4.66764 33 29 16
0.174918 1.08662 -4.20875 113 111 107
0.257682 1.06554 -4.5173 96 104 88
0.18459 1.10356 -4.23907 106 103 99
0.285239 1.07569 -4.61496 116 134 111
0.286242 1.08562 -4.6157 126 143 121
0.204753 1.25045 -4.2693 184 192 188
0.210866 1.25844 -4.28928 183 191 186
0.205664 1.31193 -4.25446 188 194 192
0.217891 1.3279 -4.2944 195 204 201
0.223457 1.3567 -4.30622 181 190 186
0.228019 1.37557 -4.31731 183 191 187
0.218802 1.38937 -4.27956 174 180 177
0.219258 1.42011 -4.27214 173 179 176
0.210041 1.4339 -4.2344 168 172 169
0.22382 1.43898 -4.28323 170 176 173
0.222268 1.44987 -4.27434 166 171 169
0.223272 1.4598 -4.27507 163 168 165
0.22172 1.47069 -4.26619 159 164 161
0.225279 1.47964 -4.27654 159 164 161
0.248637 1.55321 -4.34012 165 172 167
0.227009 1.65414 -4.23128 183 188 185
0.230567 1.66309 -4.24163 183 188 185
0.236681 1.67108 -4.2616 183 188 185
0.338241 1.70469 -4.62265 188 198 193
0.316705 1.75407 -4.52939 187 196 191
0.320263 1.76302 -4.53974 187 196 192
-0.111234 -1.70746 -3.95138 31 35 29
-0.272384 -1.54333 -3.3142 40 51 47
-0.27449 -1.22314 -3.21187 43 69 59
-0.278597 -1.21128 -3.19336 44 70 61
-0.291464 -1.15488 -3.12969 45 68 59
-0.300317 -1.0588 -3.06895 57 81 68
-0.148113 -1.0753 -3.6298 54 41 26
-0.144555 -1.06635 -3.64016 65 45 24
-0.151216 -1.05352 -3.61203 71 52 33
-0.149209 -1.03367 -3.6135 74 43 18
-0.148206 -1.02375 -3.61423 78 43 16
-0.149757 -1.01286 -3.60534 88 50 23
-0.146198 -1.0039 -3.6157 94 50 22
-0.14775 -0.993012 -3.60681 95 50 23
-0.144191 -0.984059 -3.61716 100 52 24
-0.143188 -0.974136 -3.61789 101 53 25
-0.142184 -0.964214 -3.61863 103 54 26
-0.143736 -0.953322 -3.60974 104 55 27
-0.147842 -0.941462 -3.59123 99 54 25
-0.139174 -0.934446 -3.62082 109 59 26
-0.140725 -0.923555 -3.61194 108 58 26
-0.134612 -0.91557 -3.63191 112 61 27
-0.141273 -0.902741 -3.60378 110 60 27
-0.13516 -0.894756 -3.62376 113 61 28
-0.134156 -0.884834 -3.62449 114 62 29
-0.133153 -0.874911 -3.62522 115 63 30
-0.134704 -0.86402 -3.61633 114 63 29
-0.138811 -0.85216 -3.59783 113 63 29
-0.132697 -0.844175 -3.6178 117 66 31
-0.134249 -0.833284 -3.60891 117 66 31
-0.133245 -0.823361 -3.60965 117 66 31
-0.137352 -0.811501 -3.59114 115 64 30
-0.131238 -0.803516 -3.61111 118 67 33
-0.130235 -0.793594 -3.61184 121 70 35
-0.134341 -0.781734 -3.59334 118 67 33
-0.130782 -0.77278 -3.60369 121 70 37
-0.129779 -0.762857 -3.60442 122 71 37
-0.13644 -0.750028 -3.5763 116 67 32
-0.135437 -0.740106 -3.57703 115 66 31
-0.131878 -0.731152 -3.58738 115 66 28
-0.129871 -0.711307 -3.58885 117 67 29
-0.125309 -0.692431 -3.59993 119 67 31
-0.0986698 -0.45526 -3.62714 128 95 72
-0.0976662 -0.445337 -3.62787 130 98 76
-0.0966627 -0.435415 -3.62861 156 129 110
-0.0956592 -0.425492 -3.62934 173 149 132
-0.0946557 -0.41557 -3.63007 186 164 149
-0.0910971 -0.406616 -3.64042 207 192 181
-0.0926486 -0.395725 -3.63154 214 196 184
-0.0916451 -0.385802 -3.63227 215 201 189
-0.0906416 -0.37588 -3.633 211 200 189
-0.0896381 -0.365957 -3.63373 208 197 187
-0.0911895 -0.355066 -3.62485 212 201 191
-0.090186 -0.345143 -3.62558 210 201 191
-0.0866275 -0.33619 -3.63593 206 200 192
-0.088179 -0.325298 -3.62705 207 202 194
-0.0846204 -0.316345 -3.6374 205 203 197
-0.0836169 -0.306422 -3.63813 205 203 198
-0.0826134 -0.2965 -3.63886 200 199 194
-0.0816099 -0.286577 -3.6396 205 204 200
-0.0831614 -0.275686 -3.63071 207 206 202
-0.0796028 -0.266732 -3.64106 209 209 205
-0.0785993 -0.25681 -3.6418 207 207 204
-0.0775958 -0.246887 -3.64253 202 203 200
-0.0710267 -0.208166 -3.65508 40 38 37
-0.0725782 -0.197275 -3.64619 45 44 42
-0.0715747 -0.187352 -3.64692 23 22 21
-0.0695676 -0.167507 -3.64839 40 40 39
-0.0650056 -0.148631 -3.65948 212 213 211
-0.061447 -0.139677 -3.66983 209 210 207
-0.065098 -0.0970809 -3.6439 214 209 202
-0.0640944 -0.0871584 -3.64463 219 206 194
-0.0630909 -0.0772359 -3.64537 186 162 143
-0.0646424 -0.0663446 -3.63648 156 123 98
-0.0559739 -0.0593285 -3.66607 128 83 53
-0.0549703 -0.049406 -3.6668 123 74 42
-0.0422877 -0.00269985 -3.69933 142 94 62
-0.0188372 0.0193173 -3.77848 208 179 151
0.0714066 0.0984321 -4.08474 188 190 168
0.100786 0.231534 -4.15272 121 152 136
0.143488 0.338979 -4.27694 56 79 55
0.286556 0.8617 -4.64504 32 28 16
0.285004 0.872591 -4.63615 33 31 16
0.189644 1.0839 -4.22536 95 91 87
0.188092 1.09479 -4.21647 107 103 99
0.276969 1.0817 -4.545 110 119 103
0.293303 1.08581 -4.60344 119 135 112
0.294307 1.09573 -4.60418 125 141 118
0.221941 1.29832 -4.27995 199 208 205
0.224952 1.32809 -4.28215 195 203 201
0.22851 1.33704 -4.29251 194 203 200
0.229514 1.34696 -4.29324 188 196 194
0.233073 1.35592 -4.30359 191 200 198
0.234076 1.36584 -4.30432 191 199 196
0.217195 1.38254 -4.23772 169 175 172
0.230973 1.38762 -4.28655 178 185 182
0.209985 1.41619 -4.20144 168 173 169
0.227322 1.43022 -4.26062 177 183 180
0.225771 1.44111 -4.25174 170 176 172
0.231884 1.4491 -4.27171 168 174 171
0.230333 1.45999 -4.26282 165 171 168
0.233891 1.46894 -4.27317 166 172 169
0.23234 1.47983 -4.26429 163 169 165
0.238453 1.48782 -4.28426 163 168 164
0.267925 1.56937 -4.36781 170 176 172
0.229052 1.60471 -4.21536 176 185 181
0.242738 1.66134 -4.24862 185 191 187
0.246297 1.6703 -4.25897 183 189 185
0.249855 1.67925 -4.26932 183 189 185
0.255969 1.68724 -4.28929 186 192 188
0.259527 1.69619 -4.29965 185 191 186
0.381071 1.69131 -4.74507 183 192 186
0.351415 1.71286 -4.63037 188 198 193
0.352418 1.72279 -4.6311 194 204 200
0.332434 1.76127 -4.54673 187 196 191
0.333438 1.77119 -4.54746 186 195 191
-0.344713 -1.41001 -2.9726 29 27 24
-0.350371 -1.38725 -2.94521 24 20 17
-0.253651 -1.21787 -3.24844 49 74 61
-0.137494 -1.06615 -3.6279 68 52 34
-0.139045 -1.05526 -3.61902 75 54 34
-0.138042 -1.04534 -3.61975 72 44 19
-0.142148 -1.03348 -3.60124 77 46 22
-0.13859 -1.02453 -3.6116 83 46 17
-0.135031 -1.01557 -3.62195 97 54 23
-0.136583 -1.00468 -3.61306 100 54 23
-0.135579 -0.994759 -3.6138 103 56 24
-0.137131 -0.983868 -3.60491 103 54 24
-0.131017 -0.975883 -3.62488 106 58 24
-0.135124 -0.964023 -3.60637 107 57 26
-0.136675 -0.953132 -3.59749 107 57 26
-0.133116 -0.944178 -3.60784 108 58 25
-0.127003 -0.936193 -3.62781 112 62 27
-0.123444 -0.927239 -3.63816 114 64 27
-0.127551 -0.915379 -3.61966 115 64 28
-0.126547 -0.905457 -3.62039 116 64 29
-0.125544 -0.895534 -3.62112 117 65 30
-0.127095 -0.884643 -3.61224 118 65 30
-0.126092 -0.874721 -3.61297 118 65 31
-0.125088 -0.864798 -3.6137 119 66 31
-0.124085 -0.854876 -3.61443 120 68 32
-0.128191 -0.843015 -3.59593 118 66 31
-0.124633 -0.834062 -3.60628 120 69 32
-0.123629 -0.824139 -3.60701 121 69 32
-0.127736 -0.812279 -3.58851 119 67 32
-0.124177 -0.803325 -3.59886 120 69 32
-0.125729 -0.792434 -3.58997 120 69 33
-0.119615 -0.784449 -3.60994 126 74 38
-0.0864989 -0.457007 -3.63413 210 189 181
-0.0829404 -0.448053 -3.64448 202 188 183
-0.0870468 -0.436193 -3.62597 217 199 187
-0.0834883 -0.427239 -3.63632 212 200 190
-0.0824848 -0.417317 -3.63706 212 202 193
-0.0840363 -0.406425 -3.62817 211 200 190
-0.0830328 -0.396503 -3.6289 207 198 189
-0.0820292 -0.38658 -3.62964 205 198 189
-0.0810257 -0.376658 -3.63037 205 199 191
-0.0780151 -0.34689 -3.63257 205 203 197
-0.0744566 -0.337937 -3.64292 201 199 193
-0.0734531 -0.328014 -3.64365 204 202 198
-0.0750046 -0.317123 -3.63477 208 207 202
-0.0654249 -0.248634 -3.64951 203 204 203
-0.0634179 -0.228789 -3.65098 36 36 35
-0.0609553 -0.178208 -3.64503 92 91 91
-0.0573967 -0.169254 -3.65538 52 52 51
-0.0502797 -0.151347 -3.67608 204 205 204
-0.0518312 -0.140455 -3.66719 213 215 214
-0.0519236 -0.0889053 -3.65162 224 215 205
-0.053475 -0.078014 -3.64273 202 179 161
-0.0524715 -0.0680915 -3.64347 155 124 100
-0.046358 -0.0601066 -3.66344 144 104 74
-0.0352269 -0.00250916 -3.68707 133 82 50
-0.0265583 0.00450695 -3.71666 156 110 79
0.0810225 0.097654 -4.08211 204 206 179
0.111405 0.240679 -4.15082 129 152 141
0.282485 0.804293 -4.60915 28 26 17
0.320262 0.810575 -4.74529 33 31 17
0.288506 0.863828 -4.61355 34 32 17
0.292065 0.872782 -4.6239 36 34 18
0.310405 0.896737 -4.68382 41 47 24
0.214682 1.02576 -4.29601 55 54 47
0.215686 1.03568 -4.29675 59 58 51
0.205921 1.07029 -4.25085 78 74 68
0.207928 1.09014 -4.25231 81 76 70
0.208932 1.10006 -4.25305 85 81 76
0.20738 1.11095 -4.24416 93 91 85
0.324362 1.0872 -4.6785 96 116 89
0.316605 1.14166 -4.63407 121 137 115
0.317609 1.15158 -4.6348 122 137 115
0.174436 1.25738 -4.08054 162 172 162
0.17544 1.26731 -4.08127 175 183 177
0.239222 1.29464 -4.30618 189 200 196
0.231009 1.31836 -4.26917 199 207 205
0.234568 1.32731 -4.27952 192 201 199
0.236575 1.34715 -4.28099 193 201 199
0.237578 1.35708 -4.28172 194 201 199
0.241137 1.36603 -4.29207 196 204 202
0.24725 1.37402 -4.31204 192 200 198
0.240589 1.38685 -4.28392 185 193 191
0.244147 1.3958 -4.29427 183 191 188
0.232376 1.41057 -4.2469 175 182 179
