ply
format ascii 1.0
element face 0
property list uchar int vertex_indices
element vertex 1863
property float x
property float y
property float z
property uchar diffuse_red
property uchar diffuse_green
property uchar diffuse_blue
end_header
1.94 -0.14 -2.8 44 41 25
1.94 -0.13 -2.81 49 49 29
1.94 -0.12 -2.8 41 42 23
1.94 -0.11 -2.8 45 49 29
1.94 -0.1 -2.92 58 49 33
1.94 -0.09 -4.44 102 129 88
1.94 -0.08 -2.84 30 41 21
1.94 -0.07 -2.86 46 53 40
1.94 -0.06 -2.81 52 53 42
1.94 -0.05 -2.85 53 50 45
1.94 -0.04 -2.87 51 39 36
1.94 -0.03 -2.86 44 31 28
1.94 -0.02 -2.86 51 36 30
1.94 -0.01 -2.86 51 34 29
1.94 0 -2.84 59 49 39
1.94 0.01 -3.03 62 50 35
1.94 0.02 -3.02 59 46 32
1.94 0.03 -3.01 65 50 36
1.94 0.04 -3 65 50 35
1.94 0.05 -3 65 52 34
1.94 0.06 -2.98 61 48 34
1.94 0.07 -2.89 45 40 25
1.94 0.08 -2.87 48 38 27
1.94 0.09 -2.85 49 34 24
1.94 0.1 -2.86 47 39 28
1.94 0.11 -2.83 50 37 24
1.94 0.12 -2.84 46 41 27
1.94 0.13 -2.84 45 41 27
1.94 0.14 -2.82 50 49 33
1.94 0.15 -2.84 52 50 35
1.94 0.16 -2.9 52 44 25
1.94 0.17 -2.9 57 47 27
1.94 0.18 -2.8 58 57 32
1.94 0.19 -2.82 55 48 29
1.94 0.2 -2.83 52 45 23
1.94 0.21 -3.23 79 78 58
1.94 0.22 -4.51 80 89 56
1.94 0.23 -3.22 79 74 55
1.94 0.24 -2.98 85 74 45
1.94 0.25 -4.63 91 103 75
1.94 0.26 -3.19 72 57 39
1.94 0.27 -3.19 71 56 36
1.94 0.28 -3.02 60 50 30
1.94 0.29 -2.84 70 60 28
1.94 0.3 -2.83 64 57 30
1.94 0.31 -4.56 92 94 75
1.94 0.32 -4.56 91 93 75
1.94 0.33 -4.55 90 93 72
1.94 0.34 -4.56 93 99 76
1.94 0.35 -4.65 94 108 78
1.94 0.36 -4.64 98 114 83
1.94 0.37 -4.66 97 113 79
1.94 0.38 -3.32 44 38 23
1.94 0.39 -4.72 102 123 84
1.94 0.4 -4.7 97 116 82
1.94 0.41 -4.72 103 122 86
1.94 0.42 -4.72 111 130 96
1.94 0.43 -4.76 109 133 95
1.94 0.44 -4.76 108 132 96
1.94 0.45 -3.38 48 52 33
1.94 0.46 -3.41 51 52 41
1.94 0.47 -3.4 53 57 43
1.94 0.48 -3.41 59 63 48
1.94 0.49 -3.4 57 63 45
1.94 0.5 -3.45 67 74 50
1.94 0.51 -3.43 60 63 41
1.94 0.52 -3.42 66 73 48
1.94 0.53 -3.41 67 74 51
1.94 0.54 -3.4 64 72 51
1.94 0.55 -3.15 50 54 41
1.94 0.56 -3.18 48 60 41
1.94 0.57 -3.51 81 91 57
1.94 0.58 -3.5 69 78 48
1.94 0.59 -3.53 68 76 45
1.94 0.6 -3.58 71 87 52
1.94 0.61 -3.59 75 95 59
1.94 0.62 -3.58 76 95 58
1.94 0.63 -4.73 117 130 109
1.94 0.64 -3.5 95 84 60
1.94 0.65 -3.48 90 79 54
1.94 0.66 -3.48 90 78 55
1.94 0.67 -3.37 63 72 53
1.94 0.68 -4.36 99 125 88
1.94 0.69 -3.34 78 70 51
1.94 0.7 -3.1 71 87 77
1.94 0.71 -3.17 92 84 78
1.94 0.72 -3.06 99 97 77
1.94 0.73 -2.94 103 95 76
1.94 0.74 -2.94 110 98 77
1.94 0.75 -2.93 113 102 78
1.94 0.76 -3 122 135 112
1.94 0.77 -2.99 123 133 110
1.94 0.78 -3.06 84 92 82
1.94 0.79 -3.07 64 67 60
1.94 0.8 -2.97 117 130 107
1.94 0.81 -2.99 115 120 101
1.94 0.82 -2.99 120 121 105
1.94 0.83 -3.02 115 114 103
1.94 0.84 -4.39 87 96 78
1.94 0.85 -2.84 91 100 74
1.94 0.86 -2.81 83 86 59
1.94 0.87 -2.81 76 78 50
1.94 0.88 -2.95 103 99 85
1.94 0.89 -2.95 86 85 68
1.94 0.9 -2.95 107 110 89
1.94 0.91 -2.84 84 89 64
1.94 0.92 -2.89 79 76 54
1.94 0.93 -2.83 79 82 58
1.94 0.94 -4.72 82 90 75
1.94 0.95 -2.96 111 121 103
1.94 0.96 -3.96 63 73 60
1.94 0.97 -3.96 62 71 55
1.94 0.98 -3.98 65 71 56
1.94 0.99 -3.99 78 88 69
1.94 1 -3.99 87 97 76
1.94 1.01 -4 90 97 79
1.94 1.02 -4 87 94 75
1.94 1.03 -3.93 75 83 70
1.94 1.04 -3.93 67 75 64
1.94 1.05 -3.92 70 82 72
1.94 1.06 -3.68 85 112 90
1.94 1.07 -3.67 86 108 86
1.94 1.08 -3.66 86 101 78
1.94 1.09 -3.83 87 96 83
1.94 1.1 -3.78 81 100 88
1.94 1.11 -3.52 102 108 87
1.94 1.12 -3.62 95 101 78
1.94 1.13 -3.62 93 96 77
1.94 1.14 -3.5 115 138 103
1.94 1.15 -3.5 126 150 115
1.94 1.16 -3.51 124 143 108
1.94 1.17 -3.53 116 136 102
1.94 1.18 -3.52 127 141 110
1.94 1.19 -3.52 125 135 107
1.94 1.2 -3.49 132 146 117
1.94 1.21 -3.59 107 109 94
1.94 1.22 -3.59 101 95 86
1.94 1.23 -3.58 95 94 84
1.94 1.24 -3.56 81 89 80
1.94 1.25 -3.8 127 122 119
1.94 1.26 -3.62 125 131 130
1.94 1.27 -3.47 71 72 65
1.94 1.28 -4.65 58 52 46
1.94 1.29 -4.66 61 52 44
1.94 1.3 -3.66 128 130 122
1.94 1.31 -3.67 135 135 129
1.94 1.32 -3.67 140 142 137
1.94 1.33 -3.59 131 131 126
1.94 1.34 -3.63 147 148 143
1.94 1.35 -3.59 138 137 133
1.94 1.36 -3.64 136 135 132
1.94 1.37 -3.59 132 131 130
1.94 1.38 -4.65 67 65 57
1.94 1.39 -4.67 67 64 57
1.94 1.4 -4.64 69 67 59
1.94 1.41 -2.93 50 45 38
1.94 1.42 -2.93 50 41 35
1.94 1.43 -2.95 35 26 19
1.94 1.44 -2.94 34 25 16
1.94 1.45 -2.92 34 28 13
1.94 1.46 -3 38 40 22
1.94 1.47 -2.99 41 44 24
1.94 1.48 -2.96 60 68 37
1.94 1.49 -2.98 75 88 56
1.94 1.5 -4.64 65 57 47
1.94 1.51 -4.67 68 59 49
1.94 1.52 -4.67 66 59 47
1.94 1.53 -4.68 67 59 48
1.94 1.54 -4.68 65 57 47
1.94 1.55 -4.69 65 57 49
1.94 1.56 -4.3 77 68 63
1.94 1.57 -4.3 80 75 67
1.94 1.58 -4.71 68 60 52
1.94 1.59 -4.71 66 59 51
1.94 1.6 -4.73 67 58 53
1.94 1.61 -4.74 62 53 48
1.94 1.62 -4.74 62 53 50
1.94 1.63 -4.12 76 69 69
1.94 1.64 -4.12 87 80 79
1.94 1.65 -4.13 89 82 81
1.94 1.66 -4.15 93 85 85
1.94 1.67 -4.12 98 93 92
1.94 1.68 -4.18 80 71 74
1.94 1.69 -3.75 100 97 98
1.94 1.7 -4.15 90 84 86
1.94 1.71 -4.8 80 71 71
1.94 1.72 -4.8 81 73 73
1.94 1.73 -3.66 68 60 58
1.94 1.74 -3.57 50 43 44
1.94 1.75 -3.54 46 38 38
1.94 1.76 -3.6 42 34 35
1.94 1.77 -3.58 42 34 34
1.94 1.78 -3.64 53 42 43
1.94 1.79 -3.63 48 39 38
1.94 1.8 -3.59 46 35 32
1.94 1.81 -3.65 45 36 36
1.94 1.82 -3.66 44 35 36
1.94 1.83 -3.63 43 32 30
1.94 1.84 -3.6 45 35 33
1.94 1.85 -3.59 42 36 35
1.94 1.86 -3.75 56 44 45
1.94 1.87 -3.75 54 41 41
1.94 1.88 -3.72 51 36 34
1.94 1.89 -3.78 61 47 47
1.94 1.9 -3.75 53 35 33
1.94 1.91 -3.73 58 38 37
1.94 1.92 -3.75 59 40 39
1.94 1.93 -3.67 61 45 44
1.94 1.94 -3.68 63 48 46
1.94 1.95 -3.81 58 41 39
1.94 1.96 -3.83 59 43 40
1.94 1.97 -3.79 64 48 48
1.94 1.98 -3.87 58 42 38
1.94 1.99 -3.85 61 44 40
1.95 -1.64 -3.28 67 53 57
1.95 -1.63 -3.27 65 52 56
1.95 -1.62 -3.24 82 65 66
1.95 -1.61 -3.22 78 61 62
1.95 -1.6 -3.23 70 54 55
1.95 -1.59 -3.22 76 60 61
1.95 -1.58 -3.21 79 62 63
1.95 -1.57 -3.18 79 62 62
1.95 -1.56 -3.16 69 53 53
1.95 -1.55 -3.45 58 43 43
1.95 -1.54 -3.1 73 54 55
1.95 -1.53 -3.09 76 57 58
1.95 -1.52 -3.08 76 58 59
1.95 -1.51 -3.04 67 51 52
1.95 -1.5 -3.03 63 47 48
1.95 -1.49 -2.99 66 51 51
1.95 -1.48 -2.99 58 43 43
1.95 -1.47 -2.96 60 42 44
1.95 -1.46 -2.95 64 46 48
1.95 -1.45 -2.93 69 49 52
1.95 -1.44 -3.01 61 45 45
1.95 -1.43 -3.01 62 46 46
1.95 -1.42 -3.05 79 60 60
1.95 -1.41 -2.99 73 56 56
1.95 -1.4 -3.04 68 50 49
1.95 -1.39 -3 66 49 50
1.95 -1.38 -3.05 74 55 54
1.95 -1.37 -3.05 70 50 50
1.95 -1.36 -3.24 79 64 62
1.95 -1.35 -3.07 96 79 81
1.95 -1.34 -3.1 75 59 59
1.95 -1.33 -3.07 87 72 74
1.95 -1.32 -3.04 80 61 63
1.95 -1.31 -3.09 92 75 75
1.95 -1.3 -4.33 56 42 34
1.95 -1.29 -4.32 56 45 38
1.95 -1.28 -4.29 39 37 31
1.95 -1.27 -4.28 33 32 28
1.95 -1.26 -4.25 38 30 30
1.95 -1.25 -4.24 38 30 29
1.95 -1.24 -4.18 47 42 39
1.95 -1.23 -4.2 36 33 30
1.95 -1.22 -3 83 64 61
1.95 -1.21 -4.17 54 48 42
1.95 -1.2 -3.67 97 84 81
1.95 -1.19 -3.01 86 62 64
1.95 -1.18 -4.4 32 20 17
1.95 -1.17 -4.4 28 16 13
1.95 -1.16 -4.38 31 22 18
1.95 -1.15 -4.39 34 24 20
1.95 -1.14 -4.4 30 20 16
1.95 -1.13 -4.39 27 18 13
1.95 -1.12 -4.39 26 19 14
1.95 -1.11 -4.41 32 24 21
1.95 -1.1 -3.75 120 112 112
1.95 -1.09 -3.7 117 106 106
1.95 -1.08 -4.31 31 28 25
1.95 -1.07 -4.29 31 30 26
1.95 -1.06 -4.42 25 21 16
1.95 -1.05 -4.42 19 18 15
1.95 -1.04 -4.43 24 23 20
1.95 -1.03 -4.44 25 28 23
1.95 -1.02 -4.31 23 30 26
1.95 -1.01 -3.51 103 93 91
1.95 -1 -4.44 28 28 21
1.95 -0.99 -3.99 21 24 21
1.95 -0.98 -3.95 13 18 15
1.95 -0.97 -3.94 18 28 24
1.95 -0.96 -4.24 35 37 31
1.95 -0.95 -3.83 23 36 31
1.95 -0.94 -4.35 29 30 25
1.95 -0.93 -4.33 30 34 32
1.95 -0.92 -4.37 31 42 37
1.95 -0.91 -4.36 41 56 51
1.95 -0.9 -4.35 31 46 44
1.95 -0.89 -4.33 35 49 46
1.95 -0.88 -4.43 47 51 40
1.95 -0.87 -4.08 39 45 40
1.95 -0.86 -4.16 35 52 49
1.95 -0.85 -4.02 42 45 41
1.95 -0.84 -4.51 68 73 75
1.95 -0.83 -2.92 40 25 21
1.95 -0.82 -2.92 38 26 21
1.95 -0.81 -2.92 38 28 22
1.95 -0.8 -2.9 51 39 32
1.95 -0.79 -2.89 53 37 33
1.95 -0.78 -2.88 50 33 26
1.95 -0.77 -2.88 46 30 22
1.95 -0.76 -2.88 32 22 17
1.95 -0.75 -2.9 34 25 20
1.95 -0.74 -4.17 72 84 88
1.95 -0.73 -4.18 77 90 91
1.95 -0.72 -4.22 70 85 84
1.95 -0.71 -4.24 54 69 66
1.95 -0.7 -4.38 60 86 77
1.95 -0.69 -3.53 40 45 40
1.95 -0.68 -4.29 49 62 59
1.95 -0.67 -4.21 49 67 54
1.95 -0.66 -4.22 49 67 54
1.95 -0.65 -3.45 52 55 53
1.95 -0.64 -4.05 50 63 43
1.95 -0.63 -3.48 43 46 44
1.95 -0.62 -3.42 42 44 42
1.95 -0.61 -3.57 64 73 69
1.95 -0.6 -3.5 55 58 57
1.95 -0.59 -3.45 63 66 63
1.95 -0.58 -3.48 49 52 50
1.95 -0.57 -3.52 53 56 51
1.95 -0.56 -3.5 52 56 51
1.95 -0.55 -3.51 50 54 50
1.95 -0.54 -3.44 68 69 64
1.95 -0.53 -3.43 69 70 64
1.95 -0.52 -3.44 83 82 72
1.95 -0.51 -3.4 75 70 66
1.95 -0.5 -4.43 104 161 88
1.95 -0.49 -4.21 95 122 87
1.95 -0.48 -3.94 59 84 52
1.95 -0.47 -4.7 121 173 101
1.95 -0.46 -4.72 129 177 111
1.95 -0.45 -4.74 127 169 113
1.95 -0.44 -4.75 128 168 118
1.95 -0.43 -4.76 127 160 120
1.95 -0.42 -4.78 132 160 132
1.95 -0.41 -4.8 129 146 129
1.95 -0.4 -4.8 134 150 134
1.95 -0.39 -4.8 126 140 124
1.95 -0.38 -4.45 127 163 105
1.95 -0.37 -4.36 135 172 116
1.95 -0.36 -4.36 134 169 114
1.95 -0.35 -4.4 129 161 106
1.95 -0.34 -4.39 124 155 101
1.95 -0.33 -3.38 97 89 70
1.95 -0.32 -3.59 101 99 77
1.95 -0.31 -3.75 80 89 61
1.95 -0.3 -3.59 77 80 54
1.95 -0.29 -3.57 83 89 60
1.95 -0.28 -3.55 80 87 51
1.95 -0.27 -3.57 91 101 65
1.95 -0.26 -3.48 78 85 47
1.95 -0.25 -3.49 87 91 57
1.95 -0.24 -3.53 88 93 56
1.95 -0.23 -3.76 75 74 46
1.95 -0.22 -2.82 71 40 30
1.95 -0.21 -2.81 49 29 15
1.95 -0.2 -2.8 58 46 32
1.95 -0.19 -2.84 70 61 42
1.95 -0.18 -2.81 67 48 35
1.95 -0.17 -2.83 56 47 27
1.95 -0.16 -2.87 57 50 30
1.95 -0.15 -2.88 53 46 28
1.95 -0.14 -2.89 55 51 32
1.95 -0.13 -4.67 114 146 100
1.95 -0.12 -2.91 54 51 31
1.95 -0.11 -2.92 56 48 30
1.95 -0.1 -2.92 57 45 29
1.95 -0.09 -2.92 55 43 27
1.95 -0.08 -2.92 54 46 30
1.95 -0.07 -2.88 33 34 20
1.95 -0.06 -4.41 104 130 88
1.95 -0.05 -2.87 42 34 28
1.95 -0.04 -2.85 51 41 36
1.95 -0.03 -2.85 56 39 35
1.95 -0.02 -2.83 55 44 39
1.95 -0.01 -2.84 49 34 28
1.95 0 -3.04 67 53 42
1.95 0.01 -3.04 61 46 34
1.95 0.02 -3.04 55 37 28
1.95 0.03 -3 67 51 38
1.95 0.04 -3 63 48 32
1.95 0.05 -2.99 66 51 35
1.95 0.06 -2.96 59 47 33
1.95 0.07 -2.91 46 40 29
1.95 0.08 -2.84 42 27 18
1.95 0.09 -2.87 43 38 26
1.95 0.1 -2.83 50 38 26
1.95 0.11 -2.82 47 37 24
1.95 0.12 -2.84 45 40 27
1.95 0.13 -2.83 46 41 28
1.95 0.14 -2.82 48 45 30
1.95 0.15 -2.81 47 48 31
1.95 0.16 -2.92 65 52 33
1.95 0.17 -2.91 59 47 26
1.95 0.18 -2.91 70 57 29
1.95 0.19 -2.86 47 40 22
1.95 0.2 -3.06 65 59 35
1.95 0.21 -2.84 54 45 18
1.95 0.22 -3.22 76 72 51
1.95 0.23 -4.58 98 111 80
1.95 0.24 -3.24 74 68 54
1.95 0.25 -3.26 87 86 69
1.95 0.26 -3.26 74 75 55
1.95 0.27 -2.92 69 54 31
1.95 0.28 -2.89 84 70 36
1.95 0.29 -4.47 98 113 72
1.95 0.3 -4.52 67 66 47
1.95 0.31 -4.56 87 87 71
1.95 0.32 -4.53 80 80 61
1.95 0.33 -4.56 93 97 78
1.95 0.34 -4.63 92 106 77
1.95 0.35 -4.64 96 110 80
1.95 0.36 -4.65 99 114 83
1.95 0.37 -4.69 99 117 80
1.95 0.38 -3.3 43 35 20
1.95 0.39 -3.29 77 60 41
1.95 0.4 -3 95 58 26
1.95 0.41 -4.71 104 123 88
1.95 0.42 -4.72 105 125 89
1.95 0.43 -3.24 90 73 50
1.95 0.44 -4.74 102 127 91
1.95 0.45 -3.25 67 52 35
1.95 0.46 -3.41 53 54 43
1.95 0.47 -3.41 52 55 41
1.95 0.48 -3.39 54 59 44
1.95 0.49 -3.41 55 59 42
1.95 0.5 -3.44 62 70 46
1.95 0.51 -3.43 60 68 43
1.95 0.52 -3.41 60 65 41
1.95 0.53 -3.37 63 64 49
1.95 0.54 -3.08 84 73 54
1.95 0.55 -3.15 51 54 40
1.95 0.56 -3.18 58 72 49
1.95 0.57 -3.51 84 92 60
1.95 0.58 -3.5 68 75 47
1.95 0.59 -3.5 68 76 47
1.95 0.6 -3.55 72 85 51
1.95 0.61 -3.54 83 95 61
1.95 0.62 -3.57 76 94 57
1.95 0.63 -3.38 82 84 63
1.95 0.64 -3.49 89 78 53
1.95 0.65 -3.48 91 80 56
1.95 0.66 -3.48 91 80 56
1.95 0.67 -3.14 83 104 85
1.95 0.68 -4.46 108 125 102
1.95 0.69 -4.45 108 125 104
1.95 0.7 -3.04 107 105 88
1.95 0.71 -3.03 107 105 84
1.95 0.72 -3.05 103 91 76
1.95 0.73 -2.93 106 99 78
1.95 0.74 -2.93 115 103 81
1.95 0.75 -2.93 115 100 79
1.95 0.76 -2.99 116 127 103
1.95 0.77 -3.05 89 97 87
1.95 0.78 -2.98 118 127 105
1.95 0.79 -3.06 93 96 86
1.95 0.8 -2.97 109 119 98
1.95 0.81 -2.97 111 117 98
1.95 0.82 -2.97 117 121 107
1.95 0.83 -4.38 85 97 74
1.95 0.84 -3.01 115 116 104
1.95 0.85 -2.84 88 95 72
1.95 0.86 -2.83 82 86 60
1.95 0.87 -2.81 77 78 51
1.95 0.88 -2.95 112 108 94
1.95 0.89 -2.95 106 104 86
1.95 0.9 -2.82 84 90 64
1.95 0.91 -2.8 86 93 65
1.95 0.92 -2.89 84 84 63
1.95 0.93 -4.72 83 90 75
1.95 0.94 -3.95 66 74 61
1.95 0.95 -3.94 56 64 49
1.95 0.96 -3.96 61 70 55
1.95 0.97 -3.95 59 66 50
1.95 0.98 -3.97 66 73 57
1.95 0.99 -3.93 68 77 60
1.95 1 -4.03 90 98 86
1.95 1.01 -3.97 83 86 68
1.95 1.02 -3.96 80 83 67
1.95 1.03 -3.88 82 77 66
1.95 1.04 -3.88 79 70 59
1.95 1.05 -3.67 90 108 85
1.95 1.06 -3.85 83 82 71
1.95 1.07 -3.7 63 88 74
1.95 1.08 -3.73 80 85 74
1.95 1.09 -3.79 78 99 87
1.95 1.1 -3.78 86 100 88
1.95 1.11 -3.54 103 100 76
1.95 1.12 -3.55 106 119 86
1.95 1.13 -3.57 90 119 85
1.95 1.14 -3.57 87 121 88
1.95 1.15 -2.89 85 98 67
1.95 1.16 -3.5 120 143 107
1.95 1.17 -3.72 87 79 73
1.95 1.18 -3.5 126 143 111
1.95 1.19 -3.49 107 123 92
1.95 1.2 -3.49 110 123 96
1.95 1.21 -3.58 104 113 100
1.95 1.22 -3.58 110 112 103
1.95 1.23 -3.54 82 97 85
1.95 1.24 -3.64 125 141 143
1.95 1.25 -3.62 138 141 141
1.95 1.26 -3.61 131 130 130
1.95 1.27 -4.64 60 56 51
1.95 1.28 -4.65 58 49 42
1.95 1.29 -3.62 130 129 124
1.95 1.3 -3.66 131 132 125
1.95 1.31 -3.67 138 139 133
1.95 1.32 -3.67 136 139 134
1.95 1.33 -3.61 143 143 138
1.95 1.34 -3.64 145 148 144
1.95 1.35 -3.63 145 145 141
1.95 1.36 -3.61 138 135 131
1.95 1.37 -4.66 68 65 58
1.95 1.38 -4.64 67 65 58
1.95 1.39 -2.86 71 52 38
1.95 1.4 -4.63 69 66 58
1.95 1.41 -2.93 46 40 35
1.95 1.42 -2.94 47 39 35
1.95 1.43 -2.96 36 29 21
1.95 1.44 -2.94 40 30 22
1.95 1.45 -2.93 44 36 24
1.95 1.46 -3.01 51 53 33
1.95 1.47 -3.01 51 54 34
1.95 1.48 -2.98 50 59 31
1.95 1.49 -2.98 65 78 42
1.95 1.5 -4.64 67 58 47
1.95 1.51 -4.64 67 61 50
1.95 1.52 -4.66 68 61 49
1.95 1.53 -4.68 67 59 48
1.95 1.54 -4.67 63 55 45
1.95 1.55 -4.68 62 54 45
1.95 1.56 -4.3 76 67 61
1.95 1.57 -4.25 80 74 71
1.95 1.58 -4.24 82 79 75
1.95 1.59 -4.23 78 75 73
1.95 1.6 -4.72 64 57 50
1.95 1.61 -4.73 65 57 52
1.95 1.62 -4.73 61 53 48
1.95 1.63 -4.11 81 74 74
1.95 1.64 -4.1 86 79 78
1.95 1.65 -4.13 91 84 83
1.95 1.66 -4.12 94 87 86
1.95 1.67 -4.07 95 93 92
1.95 1.68 -3.72 113 110 112
1.95 1.69 -3.68 108 104 106
1.95 1.7 -4.8 81 72 71
1.95 1.71 -4.8 82 73 73
1.95 1.72 -4.8 85 79 82
1.95 1.73 -3.67 70 62 61
1.95 1.74 -3.55 49 41 42
1.95 1.75 -3.52 45 38 38
1.95 1.76 -3.61 57 49 49
1.95 1.77 -3.59 48 40 39
1.95 1.78 -3.58 47 38 37
1.95 1.79 -3.66 46 37 37
1.95 1.8 -3.58 44 32 29
1.95 1.81 -3.63 44 34 34
1.95 1.82 -3.69 47 37 38
1.95 1.83 -3.66 45 36 37
1.95 1.84 -3.74 55 44 47
1.95 1.85 -3.71 53 41 41
1.95 1.86 -3.75 55 43 44
1.95 1.87 -3.72 50 36 33
1.95 1.88 -3.7 56 40 38
1.95 1.89 -3.67 57 42 40
1.95 1.9 -3.72 59 41 39
1.95 1.91 -3.68 63 44 43
1.95 1.92 -3.66 64 47 45
1.95 1.93 -3.71 63 47 47
1.95 1.94 -3.68 62 46 45
1.95 1.95 -3.76 62 48 48
1.95 1.96 -3.73 63 46 47
1.95 1.97 -3.79 62 48 47
1.95 1.98 -3.75 61 45 44
1.95 1.99 -3.89 57 42 38
1.96 -1.63 -3.26 69 56 60
1.96 -1.62 -3.24 77 62 63
1.96 -1.61 -3.23 77 61 62
1.96 -1.6 -3.22 83 67 68
1.96 -1.59 -3.18 70 54 55
1.96 -1.58 -3.21 75 59 60
1.96 -1.57 -3.17 75 59 59
1.96 -1.56 -3.17 70 54 54
1.96 -1.55 -3.2 79 63 63
1.96 -1.54 -3.11 73 56 56
1.96 -1.53 -3.1 75 57 58
1.96 -1.52 -3.06 64 48 50
1.96 -1.51 -3.05 63 47 48
1.96 -1.5 -3 74 59 60
1.96 -1.49 -3 64 49 50
1.96 -1.48 -2.97 62 46 47
1.96 -1.47 -2.97 63 47 48
1.96 -1.46 -2.94 65 47 49
1.96 -1.45 -3.03 60 43 43
1.96 -1.44 -3.03 59 42 42
1.96 -1.43 -3.01 68 52 52
1.96 -1.42 -2.96 65 48 49
1.96 -1.41 -3.06 68 49 47
1.96 -1.4 -3.02 74 56 55
1.96 -1.39 -3 69 53 53
1.96 -1.38 -3.07 72 53 52
1.96 -1.37 -3.04 67 48 47
1.96 -1.36 -3.22 70 56 54
1.96 -1.35 -3.05 83 64 66
1.96 -1.34 -3.08 82 65 65
1.96 -1.33 -3.08 83 65 67
1.96 -1.32 -3.06 90 75 78
1.96 -1.31 -3.09 92 74 75
1.96 -1.3 -3 62 49 48
1.96 -1.29 -4.33 59 45 38
1.96 -1.28 -4.37 65 51 48
1.96 -1.27 -3.06 84 68 68
1.96 -1.26 -4.28 39 38 34
1.96 -1.25 -4.25 41 37 34
1.96 -1.24 -4.24 36 30 27
1.96 -1.23 -4.24 36 33 28
1.96 -1.22 -4.2 38 36 32
1.96 -1.21 -3.03 79 64 65
1.96 -1.2 -3.62 94 85 82
1.96 -1.19 -3.68 106 93 90
1.96 -1.18 -3.7 111 99 97
1.96 -1.17 -4.38 31 21 16
1.96 -1.16 -4.39 35 23 20
1.96 -1.15 -4.39 30 19 16
1.96 -1.14 -4.4 28 18 14
1.96 -1.13 -4.38 26 19 13
1.96 -1.12 -4.41 28 19 15
1.96 -1.11 -4.39 29 22 17
1.96 -1.1 -4.19 37 28 21
1.96 -1.09 -3.81 124 115 113
1.96 -1.08 -3.76 133 124 123
1.96 -1.07 -4.42 28 25 19
1.96 -1.06 -4.41 18 18 12
1.96 -1.05 -4.41 19 18 14
1.96 -1.04 -4.42 26 24 21
1.96 -1.03 -4.42 31 34 29
1.96 -1.02 -4.32 24 30 28
1.96 -1.01 -4.31 28 35 31
1.96 -1 -3.49 105 93 89
1.96 -0.99 -4.01 21 24 20
1.96 -0.98 -3.99 20 27 23
1.96 -0.97 -3.95 11 19 17
1.96 -0.96 -3.85 19 26 22
1.96 -0.95 -3 60 36 33
1.96 -0.94 -4.36 36 36 32
1.96 -0.93 -4.33 32 33 28
1.96 -0.92 -4.34 34 41 38
1.96 -0.91 -4.34 38 54 49
1.96 -0.9 -4.34 32 48 45
1.96 -0.89 -4.34 37 52 49
1.96 -0.88 -4.21 34 43 45
1.96 -0.87 -4.03 87 95 88
1.96 -0.86 -2.8 81 64 63
1.96 -0.85 -3.86 32 39 36
1.96 -0.84 -4.15 50 69 58
1.96 -0.83 -2.92 47 33 29
1.96 -0.82 -2.91 44 30 25
1.96 -0.81 -2.9 43 29 23
1.96 -0.8 -2.9 40 31 24
1.96 -0.79 -2.89 49 40 33
1.96 -0.78 -2.88 45 31 24
1.96 -0.77 -2.9 37 25 20
1.96 -0.76 -4.23 71 85 90
1.96 -0.75 -4.18 64 79 82
1.96 -0.74 -4.16 59 72 74
1.96 -0.73 -2.88 35 25 21
1.96 -0.72 -4.22 73 90 89
1.96 -0.71 -4.37 70 96 86
1.96 -0.7 -4.4 57 89 75
1.96 -0.69 -4.2 41 59 51
1.96 -0.68 -4.26 41 52 50
1.96 -0.67 -4.24 36 49 45
1.96 -0.66 -3.54 46 54 49
1.96 -0.65 -3.58 45 46 45
1.96 -0.64 -3.57 48 52 50
1.96 -0.63 -4.41 29 49 43
1.96 -0.62 -3.5 44 51 48
1.96 -0.61 -3.56 71 82 74
1.96 -0.6 -3.53 49 61 53
1.96 -0.59 -3.52 49 59 53
1.96 -0.58 -3.56 55 61 52
1.96 -0.57 -3.56 51 58 48
1.96 -0.56 -3.44 68 65 61
1.96 -0.55 -3.49 55 60 55
1.96 -0.54 -3.54 63 65 58
1.96 -0.53 -3.57 75 74 60
1.96 -0.52 -3.53 70 68 50
1.96 -0.51 -3.52 59 58 44
1.96 -0.5 -3.53 69 64 51
1.96 -0.49 -3.52 57 56 46
1.96 -0.48 -3.52 70 66 49
1.96 -0.47 -4.7 125 178 105
1.96 -0.46 -4.71 126 173 107
1.96 -0.45 -4.74 130 176 117
1.96 -0.44 -4.76 134 173 129
1.96 -0.43 -4.76 127 164 123
1.96 -0.42 -4.8 137 153 136
1.96 -0.41 -4.8 136 151 136
1.96 -0.4 -4.8 138 152 138
1.96 -0.39 -4.42 131 168 115
1.96 -0.38 -4.41 126 162 109
1.96 -0.37 -4.36 135 172 117
1.96 -0.36 -4.36 140 175 122
1.96 -0.35 -4.52 113 154 104
1.96 -0.34 -4.44 135 169 107
1.96 -0.33 -3.37 95 89 70
1.96 -0.32 -4.27 111 144 94
1.96 -0.31 -3.6 98 99 78
1.96 -0.3 -3.6 94 97 73
1.96 -0.29 -3.56 64 71 42
1.96 -0.28 -3.57 72 79 46
1.96 -0.27 -3.54 88 97 60
1.96 -0.26 -3.5 96 105 61
1.96 -0.25 -3.49 85 91 56
1.96 -0.24 -4.69 100 122 90
1.96 -0.23 -3.51 94 99 59
1.96 -0.22 -3.6 98 106 63
1.96 -0.21 -2.8 67 40 30
1.96 -0.2 -2.8 48 29 18
1.96 -0.19 -2.81 55 39 27
1.96 -0.18 -3.57 108 116 70
1.96 -0.17 -2.8 43 36 20
1.96 -0.16 -2.81 42 40 22
1.96 -0.15 -2.87 51 46 26
1.96 -0.14 -2.89 51 45 27
1.96 -0.13 -3.2 82 77 49
1.96 -0.12 -4.66 115 147 102
1.96 -0.11 -2.91 56 48 27
1.96 -0.1 -2.92 61 42 24
1.96 -0.09 -2.8 42 49 25
1.96 -0.08 -4.44 108 136 93
1.96 -0.07 -2.88 52 44 30
1.96 -0.06 -2.86 38 37 22
1.96 -0.05 -2.81 62 64 45
1.96 -0.04 -2.84 46 36 26
1.96 -0.03 -2.84 48 33 29
1.96 -0.02 -2.82 50 37 34
1.96 -0.01 -2.8 54 50 38
1.96 0 -2.81 58 48 39
1.96 0.01 -3.03 64 49 37
1.96 0.02 -3.04 58 41 32
1.96 0.03 -2.98 64 50 36
1.96 0.04 -2.96 59 48 33
1.96 0.05 -2.97 64 51 35
1.96 0.06 -2.97 63 50 33
1.96 0.07 -2.89 42 36 25
1.96 0.08 -2.83 47 34 23
1.96 0.09 -2.83 40 31 19
1.96 0.1 -2.92 47 41 29
1.96 0.11 -2.92 49 44 32
1.96 0.12 -2.83 42 37 24
1.96 0.13 -2.81 50 43 27
1.96 0.14 -2.89 46 46 29
1.96 0.15 -2.8 50 51 29
1.96 0.16 -3.07 69 63 39
1.96 0.17 -2.91 64 51 31
1.96 0.18 -2.8 54 52 30
1.96 0.19 -2.89 59 47 25
1.96 0.2 -2.88 71 56 24
1.96 0.21 -2.82 53 45 23
1.96 0.22 -2.8 54 48 23
1.96 0.23 -4.58 97 112 80
1.96 0.24 -3.23 71 65 49
1.96 0.25 -3.26 86 84 68
1.96 0.26 -3.25 77 76 57
1.96 0.27 -2.93 81 64 30
1.96 0.28 -4.49 101 109 74
1.96 0.29 -4.5 75 79 52
1.96 0.3 -4.79 108 125 97
1.96 0.31 -4.6 81 88 67
1.96 0.32 -4.56 89 93 75
1.96 0.33 -4.56 101 107 86
1.96 0.34 -4.62 88 100 72
1.96 0.35 -4.64 95 112 80
1.96 0.36 -4.66 95 112 77
1.96 0.37 -3.3 67 54 36
1.96 0.38 -3.3 56 46 31
1.96 0.39 -3.29 65 51 34
1.96 0.4 -3 93 55 20
1.96 0.41 -4.71 104 124 89
1.96 0.42 -4.72 99 121 84
1.96 0.43 -4.74 107 129 94
1.96 0.44 -3.42 60 55 43
1.96 0.45 -3.38 51 50 37
1.96 0.46 -3.37 51 54 38
1.96 0.47 -3.41 53 56 43
1.96 0.48 -3.4 53 58 43
1.96 0.49 -3.38 53 59 39
1.96 0.5 -3.47 61 76 45
1.96 0.51 -3.46 65 80 48
1.96 0.52 -3.39 60 62 44
1.96 0.53 -3.38 63 64 48
1.96 0.54 -3.08 84 72 55
1.96 0.55 -3.15 56 60 43
1.96 0.56 -3.18 58 73 48
1.96 0.57 -3.5 78 86 54
1.96 0.58 -3.55 68 81 45
1.96 0.59 -3.57 75 89 53
1.96 0.6 -3.55 78 92 56
1.96 0.61 -3.54 83 96 62
1.96 0.62 -3.56 83 100 64
1.96 0.63 -4.5 110 124 103
1.96 0.64 -3.48 91 83 57
1.96 0.65 -3.12 85 106 84
1.96 0.66 -3.13 86 110 94
1.96 0.67 -3.14 94 117 93
1.96 0.68 -3.14 97 117 91
1.96 0.69 -4.36 113 138 101
1.96 0.7 -3.03 107 110 88
1.96 0.71 -3.06 102 91 76
1.96 0.72 -3.03 100 90 75
1.96 0.73 -2.94 111 99 83
1.96 0.74 -3 114 116 97
1.96 0.75 -2.94 119 104 84
1.96 0.76 -2.98 112 124 98
1.96 0.77 -3.03 103 94 83
1.96 0.78 -3 117 114 102
1.96 0.79 -4 77 93 68
1.96 0.8 -2.95 117 128 105
1.96 0.81 -2.95 114 121 102
1.96 0.82 -2.99 119 118 107
1.96 0.83 -2.99 120 120 110
1.96 0.84 -3.06 78 79 65
1.96 0.85 -2.83 83 91 63
1.96 0.86 -2.82 79 86 56
1.96 0.87 -2.8 83 86 57
1.96 0.88 -2.8 81 86 57
1.96 0.89 -2.95 105 105 88
1.96 0.9 -2.95 116 118 97
1.96 0.91 -2.91 76 77 61
1.96 0.92 -2.91 86 89 71
1.96 0.93 -3.94 68 76 62
1.96 0.94 -3.91 58 65 49
1.96 0.95 -3.94 58 66 51
1.96 0.96 -3.94 59 66 51
1.96 0.97 -3.94 57 64 49
1.96 0.98 -3.93 65 73 57
1.96 0.99 -3.97 74 79 63
1.96 1 -3.94 69 74 59
1.96 1.01 -3.94 68 71 57
1.96 1.02 -3.84 74 90 78
1.96 1.03 -3.89 78 74 63
1.96 1.04 -3.69 65 87 68
1.96 1.05 -3.72 70 93 79
1.96 1.06 -3.69 64 87 69
1.96 1.07 -4.16 95 88 81
1.96 1.08 -3.52 71 70 51
1.96 1.09 -3.51 71 69 48
1.96 1.1 -3.5 74 80 57
1.96 1.11 -3.6 87 120 93
1.96 1.12 -3.55 97 106 73
1.96 1.13 -3.55 96 112 76
1.96 1.14 -2.87 89 100 72
1.96 1.15 -3.57 86 114 88
1.96 1.16 -3.64 110 111 95
1.96 1.17 -3.74 103 87 88
1.96 1.18 -3.38 54 79 46
1.96 1.19 -3.51 101 106 83
1.96 1.2 -3.66 89 105 101
1.96 1.21 -3.67 99 111 110
1.96 1.22 -3.66 100 113 113
1.96 1.23 -3.63 129 132 129
1.96 1.24 -3.63 142 146 144
1.96 1.25 -3.66 123 138 137
1.96 1.26 -3.62 136 138 137
1.96 1.27 -4.64 58 49 42
1.96 1.28 -4.65 54 45 37
1.96 1.29 -3.63 128 129 124
1.96 1.3 -3.66 130 132 126
1.96 1.31 -3.66 131 134 127
1.96 1.32 -3.62 141 142 138
1.96 1.33 -3.66 141 145 141
1.96 1.34 -3.63 144 147 143
1.96 1.35 -3.62 146 144 141
1.96 1.36 -3.6 143 140 137
1.96 1.37 -4.65 68 66 59
1.96 1.38 -4.63 64 62 55
1.96 1.39 -4.73 77 70 61
1.96 1.4 -2.9 57 57 44
1.96 1.41 -2.93 52 46 43
1.96 1.42 -2.94 47 37 35
1.96 1.43 -2.96 43 35 30
1.96 1.44 -2.95 37 27 19
1.96 1.45 -2.94 32 24 16
1.96 1.46 -2.97 48 43 24
1.96 1.47 -2.94 56 53 25
1.96 1.48 -4.63 69 59 48
1.96 1.49 -4.61 65 57 46
1.96 1.5 -4.64 68 58 48
1.96 1.51 -4.66 69 60 49
1.96 1.52 -4.64 64 58 47
1.96 1.53 -4.68 65 59 48
1.96 1.54 -4.67 66 59 49
1.96 1.55 -4.67 63 55 48
1.96 1.56 -4.28 79 73 65
1.96 1.57 -4.24 79 71 71
1.96 1.58 -4.23 75 67 66
1.96 1.59 -4.23 72 67 65
1.96 1.6 -4.72 66 58 53
1.96 1.61 -4.73 62 54 49
1.96 1.62 -4.73 60 52 48
1.96 1.63 -4.09 77 70 69
1.96 1.64 -4.1 79 73 71
1.96 1.65 -4.09 91 84 83
1.96 1.66 -4.14 99 90 92
1.96 1.67 -4.69 79 79 76
1.96 1.68 -4.16 79 71 73
1.96 1.69 -3.65 75 67 68
1.96 1.7 -3.63 69 62 60
1.96 1.71 -3.62 69 61 60
1.96 1.72 -4.8 86 81 84
1.96 1.73 -3.55 47 39 40
1.96 1.74 -3.53 41 33 34
1.96 1.75 -3.51 41 33 33
1.96 1.76 -3.49 41 34 36
1.96 1.77 -3.63 55 44 44
1.96 1.78 -3.64 51 39 40
1.96 1.79 -3.62 48 37 35
1.96 1.8 -3.58 46 33 31
1.96 1.81 -3.56 45 36 35
1.96 1.82 -3.71 54 43 43
1.96 1.83 -3.69 51 41 41
1.96 1.84 -3.67 43 32 32
1.96 1.85 -3.74 59 46 47
1.96 1.86 -3.75 57 44 45
1.96 1.87 -3.76 56 43 43
1.96 1.88 -3.7 55 39 37
1.96 1.89 -3.77 53 34 32
1.96 1.9 -3.65 55 37 36
1.96 1.91 -3.71 59 44 45
1.96 1.92 -3.69 62 46 46
1.96 1.93 -3.77 59 42 39
1.96 1.94 -3.74 58 43 43
1.96 1.95 -3.71 60 44 44
1.96 1.96 -3.8 61 45 43
1.96 1.97 -3.75 61 46 46
1.96 1.98 -3.79 62 49 48
1.96 1.99 -3.9 51 36 33
1.97 -1.62 -3.27 60 48 51
1.97 -1.61 -3.22 77 60 61
1.97 -1.6 -3.22 77 61 62
1.97 -1.59 -3.18 77 61 61
1.97 -1.58 -3.19 76 58 59
1.97 -1.57 -3.19 62 45 47
1.97 -1.56 -3.14 74 58 59
1.97 -1.55 -3.13 70 54 54
1.97 -1.54 -3.17 81 65 65
1.97 -1.53 -3.08 67 50 51
1.97 -1.52 -3.07 68 51 52
1.97 -1.51 -3.02 67 52 53
1.97 -1.5 -3.02 62 47 48
1.97 -1.49 -3.01 67 51 52
1.97 -1.48 -2.99 59 44 45
1.97 -1.47 -2.96 61 44 46
1.97 -1.46 -3.05 63 45 45
1.97 -1.45 -3.05 64 46 45
1.97 -1.44 -2.99 68 51 52
1.97 -1.43 -3.12 82 68 68
1.97 -1.42 -3.08 68 50 49
1.97 -1.41 -3.05 66 47 46
1.97 -1.4 -3.02 68 50 49
1.97 -1.39 -3.09 66 49 49
1.97 -1.38 -3.06 74 55 54
1.97 -1.37 -3.04 68 48 48
1.97 -1.36 -3.23 74 60 57
1.97 -1.35 -3.02 62 46 45
1.97 -1.34 -3.09 75 58 58
1.97 -1.33 -3.04 85 67 67
1.97 -1.32 -3.33 56 40 40
1.97 -1.31 -3.03 72 53 53
1.97 -1.3 -3.08 93 78 79
1.97 -1.29 -3.1 77 58 58
1.97 -1.28 -3.08 85 72 72
1.97 -1.27 -3.87 50 38 35
1.97 -1.26 -4.37 70 60 54
1.97 -1.25 -4.34 44 33 29
1.97 -1.24 -4.25 38 37 33
1.97 -1.23 -4.24 36 29 26
1.97 -1.22 -4.24 33 25 23
1.97 -1.21 -4.19 44 39 36
1.97 -1.2 -4.18 45 40 36
1.97 -1.19 -3.69 90 75 73
1.97 -1.18 -3.71 103 89 87
1.97 -1.17 -3.74 99 86 83
1.97 -1.16 -4.39 31 18 15
1.97 -1.15 -4.38 29 18 15
1.97 -1.14 -4.38 27 17 13
1.97 -1.13 -4.38 28 18 14
1.97 -1.12 -4.39 30 20 15
1.97 -1.11 -4.4 29 20 17
1.97 -1.1 -4.4 33 25 21
1.97 -1.09 -4.39 25 19 16
1.97 -1.08 -4.29 26 20 16
1.97 -1.07 -3.77 122 111 109
1.97 -1.06 -4.42 29 25 20
1.97 -1.05 -3.64 119 110 109
1.97 -1.04 -4.41 26 25 21
1.97 -1.03 -4.4 31 36 31
1.97 -1.02 -4.41 21 26 20
1.97 -1.01 -4.4 18 27 20
1.97 -1 -4.06 39 36 29
1.97 -0.99 -4 23 22 15
1.97 -0.98 -4 16 21 17
1.97 -0.97 -3.97 11 19 15
1.97 -0.96 -3.85 27 28 23
1.97 -0.95 -3.84 21 26 21
1.97 -0.94 -3.84 25 35 29
1.97 -0.93 -4.32 37 39 33
1.97 -0.92 -4.41 53 66 61
1.97 -0.91 -4.33 30 40 38
1.97 -0.9 -3.93 35 39 32
1.97 -0.89 -2.94 75 59 57
1.97 -0.88 -4.04 60 69 61
1.97 -0.87 -4.08 73 77 71
1.97 -0.86 -3.99 56 64 64
1.97 -0.85 -3.87 46 52 48
1.97 -0.84 -3.87 40 49 45
1.97 -0.83 -3.99 39 47 44
1.97 -0.82 -2.9 56 39 34
1.97 -0.81 -2.9 41 29 23
1.97 -0.8 -2.91 37 28 23
1.97 -0.79 -2.88 46 34 27
1.97 -0.78 -2.87 61 44 38
1.97 -0.77 -2.89 44 32 27
1.97 -0.76 -4.22 66 81 86
1.97 -0.75 -2.89 34 23 18
1.97 -0.74 -4.17 52 67 69
1.97 -0.73 -4.18 58 72 72
1.97 -0.72 -4.19 55 70 70
1.97 -0.71 -4.36 59 88 76
1.97 -0.7 -3.56 39 39 36
1.97 -0.69 -4.24 50 63 59
1.97 -0.68 -4.27 39 48 49
1.97 -0.67 -3.47 40 43 40
1.97 -0.66 -3.48 48 52 49
1.97 -0.65 -4.18 41 51 38
1.97 -0.64 -3.55 55 63 59
1.97 -0.63 -3.5 44 53 48
1.97 -0.62 -3.57 50 58 53
1.97 -0.61 -4.42 24 41 33
1.97 -0.6 -3.59 44 51 47
1.97 -0.59 -3.47 52 53 48
1.97 -0.58 -3.56 46 50 41
1.97 -0.57 -3.55 50 54 45
1.97 -0.56 -3.48 58 60 54
1.97 -0.55 -3.53 58 64 56
1.97 -0.54 -3.57 53 59 51
1.97 -0.53 -3.36 79 77 73
1.97 -0.52 -3.44 78 74 62
1.97 -0.51 -3.51 75 77 60
1.97 -0.5 -3.5 76 75 62
1.97 -0.49 -4.21 91 123 81
1.97 -0.48 -3.51 69 61 46
1.97 -0.47 -4.69 125 176 105
1.97 -0.46 -4.73 125 172 108
1.97 -0.45 -4.73 127 173 112
1.97 -0.44 -4.74 128 171 118
1.97 -0.43 -4.8 140 161 138
1.97 -0.42 -4.8 141 156 140
1.97 -0.41 -4.8 139 152 139
1.97 -0.4 -4.8 139 151 139
1.97 -0.39 -4.42 131 169 115
1.97 -0.38 -4.42 130 167 113
1.97 -0.37 -4.42 127 163 108
1.97 -0.36 -4.4 124 157 109
1.97 -0.35 -4.37 135 165 118
1.97 -0.34 -4.48 127 166 115
1.97 -0.33 -3.36 80 80 63
1.97 -0.32 -3.58 97 96 72
1.97 -0.31 -3.59 99 100 76
1.97 -0.3 -3.6 88 91 69
1.97 -0.29 -3.64 52 62 39
1.97 -0.28 -3.51 77 82 44
1.97 -0.27 -3.97 113 125 93
1.97 -0.26 -3.54 90 98 60
1.97 -0.25 -3.49 95 103 61
1.97 -0.24 -3.53 91 98 58
1.97 -0.23 -3.54 90 94 54
1.97 -0.22 -3.51 80 93 59
1.97 -0.21 -3.58 105 113 67
1.97 -0.2 -2.8 57 33 27
1.97 -0.19 -2.8 37 28 17
1.97 -0.18 -2.83 57 47 30
1.97 -0.17 -2.81 51 44 30
1.97 -0.16 -2.8 31 28 14
1.97 -0.15 -2.8 41 39 25
1.97 -0.14 -2.9 51 44 26
1.97 -0.13 -2.8 45 51 31
1.97 -0.12 -2.8 41 49 27
1.97 -0.11 -4.66 110 143 98
1.97 -0.1 -4.65 103 134 93
1.97 -0.09 -2.8 44 53 30
1.97 -0.08 -2.81 50 52 32
1.97 -0.07 -2.81 50 47 29
1.97 -0.06 -2.86 54 40 20
1.97 -0.05 -2.84 46 33 14
1.97 -0.04 -4.34 107 133 89
1.97 -0.03 -2.82 49 38 30
1.97 -0.02 -2.8 49 40 34
1.97 -0.01 -2.81 55 39 34
1.97 0 -2.99 56 47 38
1.97 0.01 -2.97 54 44 32
1.97 0.02 -2.95 45 39 31
1.97 0.03 -2.94 43 37 28
1.97 0.04 -2.94 46 40 29
1.97 0.05 -2.91 44 39 27
1.97 0.06 -2.89 44 39 29
1.97 0.07 -2.88 45 39 29
1.97 0.08 -2.81 45 29 19
1.97 0.09 -2.8 51 36 24
1.97 0.1 -2.8 51 41 29
1.97 0.11 -2.92 48 41 29
1.97 0.12 -2.89 43 38 25
1.97 0.13 -2.9 48 43 29
1.97 0.14 -2.87 46 43 25
1.97 0.15 -2.81 46 45 25
1.97 0.16 -2.95 72 58 36
1.97 0.17 -3.09 58 53 35
1.97 0.18 -2.92 61 46 23
1.97 0.19 -2.8 55 53 32
1.97 0.2 -2.87 58 46 22
1.97 0.21 -2.83 53 46 24
1.97 0.22 -2.83 56 48 23
1.97 0.23 -2.81 55 46 21
1.97 0.24 -2.8 53 41 17
1.97 0.25 -2.8 61 48 14
1.97 0.26 -3.24 71 68 50
1.97 0.27 -2.95 77 63 35
1.97 0.28 -4.5 82 85 58
1.97 0.29 -4.8 110 129 101
1.97 0.3 -4.6 83 94 70
1.97 0.31 -4.61 86 99 72
1.97 0.32 -4.58 86 94 74
1.97 0.33 -4.59 93 103 80
1.97 0.34 -4.62 92 108 78
1.97 0.35 -2.8 67 49 24
1.97 0.36 -4.68 106 127 89
1.97 0.37 -3.23 66 53 32
1.97 0.38 -3.27 70 51 34
1.97 0.39 -3.28 70 52 35
1.97 0.4 -4.71 106 130 91
1.97 0.41 -4.7 101 122 87
1.97 0.42 -3.37 51 52 34
1.97 0.43 -3.22 84 64 45
1.97 0.44 -3.42 62 56 42
1.97 0.45 -3.38 49 49 35
1.97 0.46 -3.37 55 56 41
1.97 0.47 -3.35 52 57 38
1.97 0.48 -3.36 55 61 42
1.97 0.49 -3.37 56 62 42
1.97 0.5 -3.35 61 68 45
1.97 0.51 -3.34 63 69 47
1.97 0.52 -4.69 115 132 105
1.97 0.53 -3.31 63 55 44
1.97 0.54 -3.08 80 64 49
1.97 0.55 -3.15 59 63 45
1.97 0.56 -3.18 66 82 56
1.97 0.57 -3.56 72 87 51
1.97 0.58 -3.57 70 85 47
1.97 0.59 -3.57 80 95 58
1.97 0.6 -3.55 79 93 56
1.97 0.61 -3.52 78 89 56
1.97 0.62 -3.5 82 87 57
1.97 0.63 -3.58 87 103 67
1.97 0.64 -3.17 108 110 85
1.97 0.65 -3.12 88 110 88
1.97 0.66 -3.16 107 113 85
1.97 0.67 -3.15 109 121 90
1.97 0.68 -3.13 92 114 95
1.97 0.69 -3.16 115 115 89
1.97 0.7 -3.14 113 124 101
1.97 0.71 -3.15 117 120 94
1.97 0.72 -3.15 114 108 92
1.97 0.73 -3 117 124 107
1.97 0.74 -2.99 108 120 99
1.97 0.75 -2.98 113 128 106
1.97 0.76 -2.99 94 95 78
1.97 0.77 -2.97 118 125 104
1.97 0.78 -3.17 63 70 59
1.97 0.79 -3.18 54 83 63
1.97 0.8 -2.96 115 120 103
1.97 0.81 -2.97 119 118 106
1.97 0.82 -2.97 122 120 109
1.97 0.83 -4.27 76 91 64
1.97 0.84 -2.96 121 117 108
1.97 0.85 -2.82 84 90 61
1.97 0.86 -2.81 85 93 63
1.97 0.87 -2.8 84 88 60
1.97 0.88 -2.8 83 89 61
1.97 0.89 -2.8 85 92 64
1.97 0.9 -2.87 90 92 71
1.97 0.91 -2.9 90 88 74
1.97 0.92 -3.83 74 93 61
1.97 0.93 -3.91 57 65 48
1.97 0.94 -3.91 57 63 47
1.97 0.95 -3.88 59 67 51
1.97 0.96 -3.94 69 73 59
1.97 0.97 -3.99 78 82 71
1.97 0.98 -3.97 61 64 52
1.97 0.99 -3.97 65 69 54
1.97 1 -3.94 63 67 53
1.97 1.01 -3.84 63 72 61
1.97 1.02 -3.84 59 74 63
1.97 1.03 -3.69 80 92 72
1.97 1.04 -3.59 106 112 96
1.97 1.05 -3.69 65 84 67
1.97 1.06 -4.14 94 93 82
1.97 1.07 -4.16 85 77 70
1.97 1.08 -3.52 59 60 40
1.97 1.09 -3.51 68 64 44
1.97 1.1 -3.49 73 81 57
1.97 1.11 -3.56 90 108 71
1.97 1.12 -3.55 95 106 71
1.97 1.13 -3.54 99 110 77
1.97 1.14 -2.89 99 110 81
1.97 1.15 -3.67 96 115 97
1.97 1.16 -3.64 108 103 90
1.97 1.17 -3.67 94 110 99
1.97 1.18 -3.38 56 81 47
1.97 1.19 -3.37 55 79 45
1.97 1.2 -3.63 120 111 108
1.97 1.21 -3.65 131 139 132
1.97 1.22 -3.63 125 116 114
1.97 1.23 -3.61 137 122 125
1.97 1.24 -3.74 147 147 139
1.97 1.25 -3.75 130 141 141
1.97 1.26 -4.64 64 54 48
1.97 1.27 -4.64 55 46 39
1.97 1.28 -3.65 122 136 136
1.97 1.29 -3.6 122 119 114
1.97 1.3 -3.63 128 128 124
1.97 1.31 -3.61 135 132 129
1.97 1.32 -3.62 138 139 135
1.97 1.33 -3.6 145 145 141
1.97 1.34 -3.67 135 134 133
1.97 1.35 -3.62 145 144 142
1.97 1.36 -3.6 140 138 135
1.97 1.37 -4.64 67 64 57
1.97 1.38 -4.63 61 59 52
1.97 1.39 -4.63 69 67 59
1.97 1.4 -4.62 70 68 60
1.97 1.41 -2.88 47 45 32
1.97 1.42 -2.94 51 43 40
1.97 1.43 -2.97 49 44 37
1.97 1.44 -2.96 37 28 20
1.97 1.45 -2.95 34 27 18
1.97 1.46 -2.96 45 45 23
1.97 1.47 -4.56 72 46 42
1.97 1.48 -4.28 78 74 76
1.97 1.49 -4.26 79 74 76
1.97 1.5 -4.25 87 79 81
1.97 1.51 -4.24 90 82 83
1.97 1.52 -4.64 65 59 48
1.97 1.53 -4.67 64 58 47
1.97 1.54 -4.67 64 58 48
1.97 1.55 -4.66 64 57 48
1.97 1.56 -4.67 65 58 51
1.97 1.57 -4.23 73 63 64
1.97 1.58 -4.21 66 59 60
1.97 1.59 -4.19 75 68 69
1.97 1.6 -4.71 60 55 48
1.97 1.61 -4.71 65 60 53
1.97 1.62 -4.08 71 65 65
1.97 1.63 -4.73 62 55 53
1.97 1.64 -4.16 78 74 74
1.97 1.65 -4.14 83 77 79
1.97 1.66 -4.08 115 109 108
1.97 1.67 -4.69 80 82 79
1.97 1.68 -4.09 112 105 105
1.97 1.69 -3.63 76 67 67
1.97 1.7 -3.62 69 60 59
1.97 1.71 -3.58 74 66 65
1.97 1.72 -3.54 57 50 51
1.97 1.73 -3.54 40 33 33
1.97 1.74 -3.52 39 31 31
1.97 1.75 -3.5 40 32 32
1.97 1.76 -3.48 38 32 33
1.97 1.77 -3.63 54 42 42
1.97 1.78 -3.64 52 41 41
1.97 1.79 -3.59 48 37 37
1.97 1.8 -3.6 49 38 37
1.97 1.81 -3.7 55 46 45
1.97 1.82 -3.67 44 35 35
1.97 1.83 -3.65 42 31 30
1.97 1.84 -3.63 44 34 34
1.97 1.85 -3.74 57 44 45
1.97 1.86 -3.75 54 41 42
1.97 1.87 -3.75 53 39 38
1.97 1.88 -3.76 52 38 38
1.97 1.89 -3.74 49 33 30
1.97 1.9 -3.77 52 33 30
1.97 1.91 -3.74 54 35 32
1.97 1.92 -3.71 54 39 40
1.97 1.93 -3.7 56 40 40
1.97 1.94 -3.68 60 45 44
1.97 1.95 -3.83 58 42 39
1.97 1.96 -3.77 59 45 42
1.97 1.97 -3.73 59 44 42
1.97 1.98 -3.75 60 48 45
1.97 1.99 -3.9 51 36 34
1.98 -1.61 -3.22 72 56 57
1.98 -1.6 -3.21 77 61 62
1.98 -1.59 -3.21 78 62 63
1.98 -1.58 -3.2 63 47 48
1.98 -1.57 -3.19 78 60 61
1.98 -1.56 -3.14 74 58 58
1.98 -1.55 -3.18 76 59 60
1.98 -1.54 -3.12 69 55 55
1.98 -1.53 -3.08 67 50 50
1.98 -1.52 -3.08 70 53 53
1.98 -1.51 -3.04 66 50 52
1.98 -1.5 -3.03 61 44 45
1.98 -1.49 -3 62 46 47
1.98 -1.48 -3.06 66 48 48
1.98 -1.47 -2.97 70 54 55
1.98 -1.46 -3.05 61 43 42
1.98 -1.45 -3.05 67 48 48
1.98 -1.44 -2.97 67 50 51
1.98 -1.43 -2.99 69 53 53
1.98 -1.42 -2.97 75 55 56
1.98 -1.41 -3.04 65 47 46
1.98 -1.4 -3 69 51 51
1.98 -1.39 -3.09 68 52 52
1.98 -1.38 -3.06 67 48 46
1.98 -1.37 -3.04 66 46 46
1.98 -1.36 -3.04 75 55 55
1.98 -1.35 -3.04 95 76 78
1.98 -1.34 -3.09 75 59 59
1.98 -1.33 -3.35 62 47 46
1.98 -1.32 -3.05 88 74 75
1.98 -1.31 -3.03 71 51 52
1.98 -1.3 -2.98 76 59 59
1.98 -1.29 -3.1 80 61 61
1.98 -1.28 -3.09 97 79 79
1.98 -1.27 -3.88 45 35 32
1.98 -1.26 -4.36 50 41 33
1.98 -1.25 -4.36 52 42 37
1.98 -1.24 -2.97 81 63 61
1.98 -1.23 -4.25 40 39 36
1.98 -1.22 -4.25 41 37 35
1.98 -1.21 -3.02 78 62 63
1.98 -1.2 -4.2 48 42 41
1.98 -1.19 -4.2 38 36 33
1.98 -1.18 -4.18 41 39 33
1.98 -1.17 -3.7 106 95 92
1.98 -1.16 -4.38 38 24 20
1.98 -1.15 -4.39 30 18 15
1.98 -1.14 -4.38 27 17 14
1.98 -1.13 -4.39 30 19 15
1.98 -1.12 -4.37 30 21 15
1.98 -1.11 -4.28 26 18 15
1.98 -1.1 -4.39 29 20 16
1.98 -1.09 -4.38 25 18 14
1.98 -1.08 -4.38 23 20 17
1.98 -1.07 -4.18 44 30 21
1.98 -1.06 -4.3 29 30 26
1.98 -1.05 -4.2 36 28 22
1.98 -1.04 -4.25 31 35 28
1.98 -1.03 -4.2 25 30 23
1.98 -1.02 -4.41 22 26 20
1.98 -1.01 -4.32 17 24 21
1.98 -1 -4.3 34 41 36
1.98 -0.99 -4.03 26 26 19
1.98 -0.98 -3.99 16 15 8
1.98 -0.97 -3.98 10 14 9
1.98 -0.96 -3.98 25 36 30
1.98 -0.95 -3.85 20 23 19
1.98 -0.94 -3.85 19 28 22
1.98 -0.93 -4.44 43 48 43
1.98 -0.92 -4.39 47 58 54
1.98 -0.91 -4.32 41 47 45
1.98 -0.9 -4.42 48 65 59
1.98 -0.89 -2.81 75 60 62
1.98 -0.88 -2.8 71 53 54
1.98 -0.87 -4.01 83 93 85
1.98 -0.86 -3.93 71 82 77
1.98 -0.85 -3.88 58 64 58
1.98 -0.84 -3.85 43 49 41
1.98 -0.83 -4.02 35 44 40
1.98 -0.82 -2.93 45 33 29
1.98 -0.81 -2.89 58 42 36
1.98 -0.8 -2.91 35 25 21
1.98 -0.79 -2.9 42 34 28
1.98 -0.78 -2.88 44 35 28
1.98 -0.77 -2.88 48 36 32
1.98 -0.76 -2.87 40 32 29
1.98 -0.75 -2.88 39 27 24
1.98 -0.74 -2.88 38 29 25
1.98 -0.73 -4.18 54 68 70
1.98 -0.72 -4.2 54 68 68
1.98 -0.71 -4.18 55 71 69
1.98 -0.7 -4.36 63 91 80
1.98 -0.69 -4.34 48 71 64
1.98 -0.68 -3.47 40 45 42
1.98 -0.67 -3.47 42 45 42
1.98 -0.66 -4.37 35 59 52
1.98 -0.65 -4.35 44 67 58
1.98 -0.64 -3.46 56 63 61
1.98 -0.63 -4.25 47 57 37
1.98 -0.62 -3.48 58 65 60
1.98 -0.61 -3.57 58 67 60
1.98 -0.6 -3.51 46 52 45
1.98 -0.59 -3.46 67 67 61
1.98 -0.58 -3.49 49 51 45
1.98 -0.57 -3.49 53 58 51
1.98 -0.56 -3.51 58 63 54
1.98 -0.55 -3.42 78 76 72
1.98 -0.54 -3.56 48 55 45
1.98 -0.53 -3.51 61 66 57
1.98 -0.52 -3.51 60 66 53
1.98 -0.51 -3.51 71 69 50
1.98 -0.5 -3.55 60 56 40
1.98 -0.49 -4.41 90 150 77
1.98 -0.48 -4.42 98 161 86
1.98 -0.47 -4.71 121 169 102
1.98 -0.46 -4.7 130 178 112
1.98 -0.45 -4.8 130 164 123
1.98 -0.44 -4.8 131 157 125
1.98 -0.43 -4.8 138 158 134
1.98 -0.42 -4.8 138 153 136
1.98 -0.41 -4.79 136 152 136
1.98 -0.4 -4.8 140 151 140
1.98 -0.39 -4.39 128 168 112
1.98 -0.38 -4.39 136 173 119
1.98 -0.37 -4.4 131 167 115
1.98 -0.36 -4.35 129 162 113
1.98 -0.35 -3.42 92 93 72
1.98 -0.34 -3.37 87 89 69
1.98 -0.33 -3.42 79 77 54
1.98 -0.32 -3.36 89 84 62
1.98 -0.31 -3.58 93 93 66
1.98 -0.3 -3.57 91 93 67
1.98 -0.29 -3.63 65 74 50
1.98 -0.28 -3.63 58 68 43
1.98 -0.27 -4.64 113 143 104
1.98 -0.26 -4.64 107 134 99
1.98 -0.25 -4.68 114 138 103
1.98 -0.24 -3.55 100 106 71
1.98 -0.23 -3.51 93 103 68
1.98 -0.22 -3.57 83 90 49
1.98 -0.21 -3.58 86 93 55
1.98 -0.2 -2.8 68 36 33
1.98 -0.19 -2.82 51 30 22
1.98 -0.18 -2.82 43 38 26
1.98 -0.17 -2.85 61 58 35
1.98 -0.16 -2.81 47 46 32
1.98 -0.15 -2.8 36 33 22
1.98 -0.14 -2.8 41 42 30
1.98 -0.13 -2.86 44 47 29
1.98 -0.12 -2.87 42 47 27
1.98 -0.11 -4.65 106 139 94
1.98 -0.1 -4.65 103 133 92
1.98 -0.09 -4.34 109 137 90
1.98 -0.08 -2.87 53 47 23
1.98 -0.07 -2.8 53 49 36
1.98 -0.06 -2.81 46 41 25
1.98 -0.05 -2.83 56 41 25
1.98 -0.04 -2.82 46 29 13
1.98 -0.03 -3.02 69 57 45
1.98 -0.02 -2.8 62 46 39
1.98 -0.01 -2.8 72 43 36
1.98 0 -2.97 57 47 37
1.98 0.01 -2.95 42 35 24
1.98 0.02 -2.93 45 38 28
1.98 0.03 -2.96 44 34 27
1.98 0.04 -2.95 46 37 29
1.98 0.05 -2.91 42 36 25
1.98 0.06 -2.94 51 42 29
1.98 0.07 -2.87 47 41 28
1.98 0.08 -2.8 42 34 19
1.98 0.09 -2.8 48 41 27
1.98 0.1 -2.81 46 40 26
1.98 0.11 -2.9 45 39 23
1.98 0.12 -2.92 57 48 32
1.98 0.13 -2.89 49 44 27
1.98 0.14 -2.84 44 40 25
1.98 0.15 -2.9 58 54 29
1.98 0.16 -2.88 55 55 31
1.98 0.17 -2.96 67 53 30
1.98 0.18 -2.92 77 61 35
1.98 0.19 -2.82 49 49 30
1.98 0.2 -2.91 75 58 25
1.98 0.21 -2.85 66 58 35
1.98 0.22 -2.84 56 47 21
1.98 0.23 -2.8 55 50 25
1.98 0.24 -2.8 56 45 22
1.98 0.25 -2.8 53 40 14
1.98 0.26 -2.95 72 59 27
1.98 0.27 -4.5 99 104 74
1.98 0.28 -4.5 82 84 58
1.98 0.29 -4.58 83 88 70
1.98 0.3 -4.59 82 91 69
1.98 0.31 -4.59 87 98 74
1.98 0.32 -4.59 83 96 72
1.98 0.33 -4.61 90 106 77
1.98 0.34 -4.63 87 105 72
1.98 0.35 -4.64 96 115 82
1.98 0.36 -4.64 106 125 92
1.98 0.37 -3.22 59 45 27
1.98 0.38 -3.27 72 53 38
1.98 0.39 -3.26 65 46 29
1.98 0.4 -3.38 52 52 34
1.98 0.41 -3.39 52 50 30
1.98 0.42 -3.41 57 51 36
1.98 0.43 -3.42 56 50 37
1.98 0.44 -3.41 59 53 38
1.98 0.45 -3.38 51 50 35
1.98 0.46 -3.37 57 59 42
1.98 0.47 -3.37 53 57 39
1.98 0.48 -3.43 57 61 41
1.98 0.49 -3.45 55 65 40
1.98 0.5 -3.38 65 72 51
1.98 0.51 -4.68 120 137 111
1.98 0.52 -3.19 64 78 53
1.98 0.53 -3.26 77 63 47
1.98 0.54 -3.08 80 63 48
1.98 0.55 -3.15 65 72 52
1.98 0.56 -3.14 64 68 52
1.98 0.57 -3.55 67 79 43
1.98 0.58 -3.48 73 81 53
1.98 0.59 -3.48 67 74 46
1.98 0.6 -3.54 80 94 58
1.98 0.61 -4.46 108 114 91
1.98 0.62 -3.58 87 105 67
1.98 0.63 -3.58 88 105 68
1.98 0.64 -3.11 99 115 86
1.98 0.65 -3.12 91 115 91
1.98 0.66 -3.11 95 111 90
1.98 0.67 -3.11 91 109 89
1.98 0.68 -3.11 83 103 86
1.98 0.69 -3.17 115 111 90
1.98 0.7 -3.13 112 124 106
1.98 0.71 -3.42 86 83 58
1.98 0.72 -3.16 118 109 94
1.98 0.73 -2.99 111 127 111
1.98 0.74 -2.99 98 104 88
1.98 0.75 -2.98 87 97 80
1.98 0.76 -2.98 85 88 73
1.98 0.77 -2.98 106 103 89
1.98 0.78 -3.16 74 70 63
1.98 0.79 -2.97 121 120 110
1.98 0.8 -4.3 94 111 82
1.98 0.81 -2.97 119 117 106
1.98 0.82 -2.97 121 120 108
1.98 0.83 -4.22 77 90 62
1.98 0.84 -2.83 84 94 70
1.98 0.85 -2.82 86 92 65
1.98 0.86 -2.81 86 93 62
1.98 0.87 -2.81 87 92 62
1.98 0.88 -2.85 89 92 68
1.98 0.89 -2.85 91 94 69
1.98 0.9 -2.86 95 95 79
1.98 0.91 -3.77 69 86 58
1.98 0.92 -3.91 54 61 43
1.98 0.93 -3.85 57 70 46
1.98 0.94 -3.88 59 66 50
1.98 0.95 -3.86 58 67 49
1.98 0.96 -3.85 63 71 53
1.98 0.97 -3.98 68 70 60
1.98 0.98 -3.95 61 63 51
1.98 0.99 -3.89 55 61 48
1.98 1 -3.78 88 80 71
1.98 1.01 -3.84 71 72 61
1.98 1.02 -3.84 60 75 64
1.98 1.03 -3.67 77 84 66
1.98 1.04 -3.7 71 87 71
1.98 1.05 -3.7 66 86 73
1.98 1.06 -3.48 71 61 45
1.98 1.07 -4.14 81 66 59
1.98 1.08 -3.78 94 93 84
1.98 1.09 -3.52 69 71 50
1.98 1.1 -3.54 89 99 69
1.98 1.11 -3.54 95 106 73
1.98 1.12 -3.54 101 110 79
1.98 1.13 -3.56 108 119 89
1.98 1.14 -3.63 105 105 88
1.98 1.15 -3.63 108 108 90
1.98 1.16 -3.65 115 118 103
1.98 1.17 -3.67 104 120 112
1.98 1.18 -3.64 117 111 104
1.98 1.19 -3.64 125 118 112
1.98 1.2 -3.62 125 111 110
1.98 1.21 -3.6 117 115 111
1.98 1.22 -3.6 132 124 122
1.98 1.23 -3.53 135 138 133
1.98 1.24 -3.75 134 143 139
1.98 1.25 -3.73 141 133 133
1.98 1.26 -4.62 59 52 45
1.98 1.27 -4.62 57 48 41
1.98 1.28 -4.62 59 50 43
1.98 1.29 -3.63 130 134 129
1.98 1.3 -3.63 130 131 127
1.98 1.31 -3.61 126 124 120
1.98 1.32 -3.61 138 137 133
1.98 1.33 -3.6 144 144 140
1.98 1.34 -4.64 67 61 54
1.98 1.35 -3.61 142 142 139
1.98 1.36 -4.65 71 65 59
1.98 1.37 -4.64 68 64 58
1.98 1.38 -4.62 64 61 54
1.98 1.39 -4.61 68 66 58
1.98 1.4 -2.9 53 45 41
1.98 1.41 -2.88 51 44 34
1.98 1.42 -2.9 50 42 37
1.98 1.43 -2.96 48 42 37
1.98 1.44 -2.97 37 31 20
1.98 1.45 -2.96 43 37 22
1.98 1.46 -4.6 66 60 50
1.98 1.47 -4.27 67 64 65
1.98 1.48 -4.26 70 66 68
1.98 1.49 -4.24 71 64 65
1.98 1.5 -4.24 69 61 63
1.98 1.51 -4.24 77 68 70
1.98 1.52 -4.22 72 63 64
1.98 1.53 -4.22 70 60 62
1.98 1.54 -4.21 71 61 62
1.98 1.55 -4.66 67 60 52
1.98 1.56 -4.2 74 62 64
1.98 1.57 -4.19 82 72 73
1.98 1.58 -4.18 77 68 69
1.98 1.59 -4.17 79 70 71
1.98 1.6 -4.7 63 58 50
1.98 1.61 -4.71 65 59 53
1.98 1.62 -4.07 80 74 74
1.98 1.63 -4.07 78 72 72
1.98 1.64 -4.72 63 58 56
1.98 1.65 -4.09 105 100 99
1.98 1.66 -4.08 114 108 108
1.98 1.67 -4.06 117 112 113
1.98 1.68 -4.04 118 112 114
1.98 1.69 -3.64 72 61 61
1.98 1.7 -3.62 72 62 61
1.98 1.71 -3.54 68 61 62
1.98 1.72 -3.52 41 34 34
1.98 1.73 -3.5 41 33 33
1.98 1.74 -3.55 49 40 40
1.98 1.75 -3.52 41 33 34
1.98 1.76 -3.6 49 39 39
1.98 1.77 -3.63 56 44 44
1.98 1.78 -3.64 52 40 40
1.98 1.79 -3.61 49 38 36
1.98 1.8 -3.6 49 39 37
1.98 1.81 -3.66 44 35 35
1.98 1.82 -3.68 50 40 40
1.98 1.83 -3.73 59 47 49
1.98 1.84 -3.74 57 43 47
1.98 1.85 -3.75 61 49 51
1.98 1.86 -3.74 54 40 40
1.98 1.87 -3.76 55 42 42
1.98 1.88 -3.77 55 41 41
1.98 1.89 -3.72 54 38 34
1.98 1.9 -3.7 58 39 36
1.98 1.91 -3.66 61 45 46
1.98 1.92 -3.65 62 48 47
1.98 1.93 -3.81 60 45 44
1.98 1.94 -3.76 56 44 43
1.98 1.95 -3.72 59 44 43
1.98 1.96 -3.81 59 43 39
1.98 1.97 -3.83 57 43 40
1.98 1.98 -3.78 60 48 45
1.98 1.99 -3.87 55 39 38
1.99 -1.61 -3.22 75 60 62
1.99 -1.6 -3.2 77 60 61
1.99 -1.59 -3.21 72 56 58
1.99 -1.58 -3.16 81 64 65
1.99 -1.57 -3.16 79 62 63
1.99 -1.56 -3.16 84 67 68
1.99 -1.55 -3.14 70 54 54
1.99 -1.54 -3.1 67 51 51
1.99 -1.53 -3.1 71 57 56
1.99 -1.52 -3.06 66 49 50
1.99 -1.51 -3.05 65 48 50
1.99 -1.5 -3.02 64 49 50
1.99 -1.49 -2.99 62 46 47
1.99 -1.48 -2.99 68 51 53
1.99 -1.47 -3.08 65 47 47
1.99 -1.46 -3.06 67 49 48
1.99 -1.45 -2.99 64 47 48
1.99 -1.44 -2.99 66 49 50
1.99 -1.43 -3.11 73 58 58
1.99 -1.42 -3.06 66 46 45
1.99 -1.41 -3.06 74 55 54
1.99 -1.4 -3.01 70 52 52
1.99 -1.39 -3.08 63 45 44
1.99 -1.38 -3.06 65 46 45
1.99 -1.37 -3.06 69 49 48
1.99 -1.36 -3.03 74 55 54
1.99 -1.35 -3.2 82 68 68
1.99 -1.34 -3.04 88 71 73
1.99 -1.33 -3.03 85 66 68
1.99 -1.32 -3.06 87 69 72
1.99 -1.31 -3.08 82 64 65
1.99 -1.3 -3.08 84 67 67
1.99 -1.29 -3.08 92 77 78
1.99 -1.28 -3.09 97 78 78
1.99 -1.27 -3.9 48 38 35
1.99 -1.26 -3.89 50 39 36
1.99 -1.25 -3.06 69 55 55
1.99 -1.24 -3.07 83 69 68
1.99 -1.23 -3.08 83 69 69
1.99 -1.22 -3.01 84 69 69
1.99 -1.21 -3.04 75 57 59
1.99 -1.2 -4.29 41 43 38
1.99 -1.19 -4.2 43 40 37
1.99 -1.18 -4.19 41 40 35
1.99 -1.17 -4.18 35 33 27
1.99 -1.16 -3.74 103 90 87
1.99 -1.15 -4.34 31 20 17
1.99 -1.14 -4.38 31 18 15
1.99 -1.13 -4.37 30 20 15
1.99 -1.12 -4.26 28 18 16
1.99 -1.11 -4.39 35 24 19
1.99 -1.1 -4.39 27 18 14
1.99 -1.09 -4.37 25 19 13
1.99 -1.08 -4.37 24 20 15
1.99 -1.07 -4.29 28 22 17
1.99 -1.06 -4.18 43 27 19
1.99 -1.05 -4.29 29 31 27
1.99 -1.04 -4.19 32 25 19
1.99 -1.03 -4.19 25 27 21
1.99 -1.02 -4.4 21 25 19
1.99 -1.01 -4.41 24 29 21
1.99 -1 -4.32 21 28 23
1.99 -0.99 -4.3 29 37 30
1.99 -0.98 -4 20 15 8
1.99 -0.97 -3.87 34 29 23
1.99 -0.96 -4 23 34 26
1.99 -0.95 -2.98 49 23 19
1.99 -0.94 -2.97 56 32 27
1.99 -0.93 -2.97 44 31 25
1.99 -0.92 -4.39 46 57 52
1.99 -0.91 -4.32 40 44 41
1.99 -0.9 -4.34 55 62 56
1.99 -0.89 -3.77 54 65 59
1.99 -0.88 -3.98 82 85 72
1.99 -0.87 -3.81 39 40 32
1.99 -0.86 -4.07 88 96 86
1.99 -0.85 -3.93 65 79 72
1.99 -0.84 -3.92 56 70 66
1.99 -0.83 -4.15 71 89 79
1.99 -0.82 -4.15 79 92 83
1.99 -0.81 -2.91 53 41 36
1.99 -0.8 -2.91 40 31 25
1.99 -0.79 -2.89 39 28 23
1.99 -0.78 -2.88 40 30 24
1.99 -0.77 -2.89 46 37 32
1.99 -0.76 -2.89 46 36 31
1.99 -0.75 -2.87 40 32 28
1.99 -0.74 -2.87 45 34 29
1.99 -0.73 -4.17 55 69 70
1.99 -0.72 -4.18 55 70 69
1.99 -0.71 -4.18 50 65 63
1.99 -0.7 -4.2 53 66 65
1.99 -0.69 -4.19 37 48 46
1.99 -0.68 -3.58 41 40 39
1.99 -0.67 -3.53 43 48 44
1.99 -0.66 -4.36 47 68 63
1.99 -0.65 -3.57 49 54 54
1.99 -0.64 -3.48 58 66 63
1.99 -0.63 -3.48 65 72 68
1.99 -0.62 -3.43 77 81 78
1.99 -0.61 -4.42 29 42 32
1.99 -0.6 -4.42 18 30 21
1.99 -0.59 -3.49 62 64 59
1.99 -0.58 -3.53 53 53 47
1.99 -0.57 -3.49 65 70 64
1.99 -0.56 -3.51 53 58 49
1.99 -0.55 -3.55 50 55 46
1.99 -0.54 -3.55 50 54 45
1.99 -0.53 -3.45 74 85 77
1.99 -0.52 -4.8 117 158 100
1.99 -0.51 -3.5 88 89 75
1.99 -0.5 -3.49 98 100 85
1.99 -0.49 -3.49 89 80 67
1.99 -0.48 -3.72 94 103 69
1.99 -0.47 -3.67 114 113 79
1.99 -0.46 -4.8 128 163 116
1.99 -0.45 -4.8 133 165 124
1.99 -0.44 -4.8 136 163 130
1.99 -0.43 -4.8 141 161 136
1.99 -0.42 -4.8 140 154 136
1.99 -0.41 -4.8 136 147 135
1.99 -0.4 -4.8 143 153 144
1.99 -0.39 -4.41 133 175 116
1.99 -0.38 -4.4 134 172 115
1.99 -0.37 -4.38 132 167 116
1.99 -0.36 -4.38 133 166 119
1.99 -0.35 -3.42 106 109 88
1.99 -0.34 -3.37 82 85 64
1.99 -0.33 -3.35 75 75 57
1.99 -0.32 -3.37 67 67 48
1.99 -0.31 -3.36 86 72 52
1.99 -0.3 -3.59 80 84 62
1.99 -0.29 -3.57 94 97 70
1.99 -0.28 -3.66 56 68 43
1.99 -0.27 -3.5 79 85 54
1.99 -0.26 -4.69 113 138 103
1.99 -0.25 -4.68 112 137 101
1.99 -0.24 -3.53 102 113 73
1.99 -0.23 -3.56 92 100 62
1.99 -0.22 -3.54 97 104 62
1.99 -0.21 -3.58 91 98 60
1.99 -0.2 -3.56 108 116 71
1.99 -0.19 -2.8 57 30 26
1.99 -0.18 -2.82 45 34 26
1.99 -0.17 -2.86 55 50 32
1.99 -0.16 -2.89 50 45 26
1.99 -0.15 -2.8 38 35 26
1.99 -0.14 -2.86 36 35 22
1.99 -0.13 -2.86 36 35 23
1.99 -0.12 -4.63 112 144 100
1.99 -0.11 -2.87 42 38 22
1.99 -0.1 -4.64 110 142 99
1.99 -0.09 -4.4 105 138 87
1.99 -0.08 -4.33 111 140 92
1.99 -0.07 -2.8 51 46 33
1.99 -0.06 -2.8 46 39 26
1.99 -0.05 -2.8 44 31 20
1.99 -0.04 -2.8 56 32 19
1.99 -0.03 -4.32 109 134 93
1.99 -0.02 -2.98 46 53 37
1.99 -0.01 -2.97 51 49 40
1.99 0 -2.95 53 47 38
1.99 0.01 -2.94 37 31 23
1.99 0.02 -2.92 41 34 26
1.99 0.03 -2.93 39 29 21
1.99 0.04 -2.91 42 33 24
1.99 0.05 -2.94 47 37 28
1.99 0.06 -2.85 43 38 20
1.99 0.07 -2.85 46 41 26
1.99 0.08 -2.84 50 44 28
1.99 0.09 -2.8 40 35 19
1.99 0.1 -2.84 45 42 25
1.99 0.11 -2.8 52 45 31
1.99 0.12 -2.9 54 47 29
1.99 0.13 -2.87 43 39 21
1.99 0.14 -2.91 63 53 29
1.99 0.15 -2.88 55 52 32
1.99 0.16 -2.8 51 48 29
1.99 0.17 -2.87 54 55 31
1.99 0.18 -3.09 66 62 43
1.99 0.19 -2.8 50 51 29
1.99 0.2 -3.07 63 57 36
1.99 0.21 -2.96 75 63 27
1.99 0.22 -2.85 57 44 19
1.99 0.23 -2.83 60 51 25
1.99 0.24 -2.83 70 59 25
1.99 0.25 -2.8 47 34 9
1.99 0.26 -2.92 76 58 21
1.99 0.27 -2.92 71 56 23
1.99 0.28 -4.49 81 83 55
1.99 0.29 -4.5 87 88 64
1.99 0.3 -4.59 86 98 73
1.99 0.31 -4.6 92 107 78
1.99 0.32 -4.59 89 103 77
1.99 0.33 -4.6 94 111 81
1.99 0.34 -4.62 98 117 84
1.99 0.35 -4.63 103 123 89
1.99 0.36 -3.23 65 48 30
1.99 0.37 -3.21 59 43 28
